ncols        783
nrows        26
xllcorner    558165
yllcorner    5279285
cellsize     100.000000000000
NODATA_value 0
0 0 0 0 0 0 0 0 0 0 0 0 0 0 0 0 0 0 0 0 0 0 0 0 0 0 0 0 0 0 0 0 0 0 0 0 0 0 0 0 0 0 0 0 0 0 0 0 0 0 0 0 0 0 0 0 0 0 0 0 0 0 0 0 0 0 0 0 0 0 0 0 0 0 0 0 0 0 0 0 0 0 0 0 0 0 0 0 0 0 0 0 0 0 0 0 0 0 0 0 0 0 0 0 0 0 0 0 0 0 0 0 0 0 0 0 0 0 0 0 0 0 0 0 0 0 0 0 0 0 0 0 0 0 0 0 0 0 0 0 0 0 0 0 0 0 0 0 0 0 0 0 0 0 0 0 0 0 0 0 0 1764 1766 1759 1746 1712 1649 1741 1803 1829 1822 1775 1640 1378 999 673 434 288 166 146 137 126 122 125 124 124 122 122 156 168 129 122 122 125 182 196 122 122 183 152 122 122 157 122 122 124 122 123 133 122 122 136 142 144 138 137 137 137 183 270 387 476 561 677 691 740 851 872 913 902 824 708 933 926 901 868 844 844 848 857 712 704 833 871 893 925 1038 1174 1306 1414 1572 1596 1637 1710 1741 1745 1745 1736 1728 1688 1646 1672 1728 1752 1776 1813 1836 1842 1851 1843 1832 1829 1819 1798 1753 1724 1708 1704 1696 1681 1652 1637 1615 1589 1616 1674 1622 1525 1189 957 916 918 959 1121 1189 1186 1285 1369 1434 1512 1649 1805 1862 1918 1972 1994 2023 2119 2182 2259 2285 2284 2268 2204 2169 2147 2075 2008 1908 1910 1950 1997 2302 2575 2693 2816 3000 3214 3275 3240 3189 3034 3222 3491 3621 3360 3230 3406 3799 4131 3422 3065 3216 3522 3772 4022 3966 3944 4173 4740 4585 4551 4050 3659 3638 3763 4070 4434 4610 4679 4679 4515 4124 3910 3825 3949 4149 4233 4361 4527 4507 4446 4395 4384 4387 4365 4517 4603 4626 4968 5190 5265 4770 4374 4110 4109 4187 4297 4447 4550 4998 5970 6711 7304 7437 7506 7606 7730 7810 7838 7713 8016 8306 8551 8509 8754 8805 8763 8616 8523 8440 8606 8789 9112 9427 9858 10107 10458 10932 11347 11658 11845 11694 11340 10676 10254 10794 11707 12114 12276 12416 12428 12055 11477 10841 10323 9487 9349 9182 9422 9475 9837 10637 10958 11403 12233 12577 11837 10877 10504 11099 11224 10835 10505 10433 10697 10972 11742 11879 11647 11194 10870 10683 10513 10675 10757 10830 10795 10733 10765 11055 11220 11475 12090 12025 12280 13340 13395 12700 12298 11685 11120 10800 10800 11118 11374 12240 13168 13212 12792 13237 13193 12933 12520 12485 12407 12390 12620 12653 12068 11812 11619 11497 10924 10267 9622 9337 9036 8982 8876 8702 8292 8315 8167 7967 7791 7741 7569 7467 7431 7422 7531 7552 7660 7896 8162 8339 8486 8619 8830 8922 8974 9270 9297 9400 9634 9917 10091 10468 10853 11270 11749 12070 12379 12800 13002 13219 13470 13765 14045 14485 14890 14855 13899 13327 12972 12513 12157 11760 11450 11294 11140 10898 10619 10395 10222 10389 10567 10728 10915 11263 11628 12119 12757 13552 14584 15323 14913 14579 14290 13832 13444 13030 12448 12425 12223 11930 11680 11600 10352 9842 9564 10201 10810 11408 12258 13045 13728 14450 14910 15625 16072 15604 15240 14570 14025 13264 12420 11812 11243 10803 10625 10460 10255 10055 9997 10001 9617 8911 8017 7014 6140 5013 4372 3937 3618 3572 3498 3460 4275 5127 5152 5709 6357 7659 8722 9565 9967 10642 11348 11665 11819 11985 12394 12775 13167 13810 14125 14337 13934 13109 12403 11827 11590 11353 11357 11425 11445 11894 11780 10990 9981 9379 8800 8940 9342 9634 9977 10505 10915 11733 12298 12832 13170 13325 13190 12495 12097 11930 11610 11334 11144 10487 10052 9702 9350 9385 9116 8547 7674 7080 6044 5502 5251 5068 4983 4872 4895 4492 4323 5167 5826 6442 7454 8282 8827 9464 9650 9710 9646 9547 9485 9812 10037 10290 10657 10847 11204 11775 12189 12595 13023 13228 13189 12915 12597 12189 11605 11133 10860 11364 11815 12125 12822 13347 13860 14440 14435 14209 13789 13492 13607 13685 13675 13093 12378 12030 11823 11594 11825 12270 12702 12998 13279 13737 14260 14659 14443 14247 14003 13545 12859 12233 11609 11255 10900 11057 11325 11759 12155 12340 12292 12218 12275 12589 12770 12494 12102 11485 10990 10585 9886 9310
0 0 0 0 0 0 0 0 0 0 0 0 0 0 0 0 0 0 0 0 0 0 0 0 0 0 0 0 0 0 0 0 0 0 0 0 0 0 0 0 0 0 0 0 0 0 0 0 0 0 0 0 0 0 0 0 0 0 0 0 0 0 0 0 0 0 0 0 0 0 0 0 0 0 0 0 0 0 0 0 0 0 0 0 0 0 0 0 0 0 0 0 0 0 0 0 0 0 0 0 0 0 0 0 0 0 0 0 0 0 0 0 0 0 0 0 0 0 0 0 0 0 0 0 0 0 0 0 0 0 0 0 0 0 0 0 0 0 0 0 0 0 0 0 0 0 0 0 0 0 0 0 0 0 0 0 0 0 0 0 0 1770 1773 1771 1761 1751 1761 1777 1825 1868 1896 1872 1773 1525 1183 839 586 410 206 149 141 129 122 123 127 128 126 122 122 167 168 122 122 123 182 187 187 186 191 189 134 122 191 147 124 122 122 128 147 122 122 132 136 138 137 137 137 137 137 137 210 288 430 551 557 607 746 777 910 806 636 817 920 917 892 857 839 830 848 857 621 670 843 839 847 889 988 1164 1329 1477 1547 1562 1577 1646 1701 1721 1749 1749 1732 1681 1674 1681 1737 1766 1792 1830 1839 1846 1860 1861 1846 1846 1841 1835 1803 1772 1733 1695 1675 1658 1651 1648 1592 1548 1548 1648 1607 1386 974 877 971 1050 1139 1194 1281 1306 1332 1387 1448 1509 1743 1836 1896 1940 1986 2009 2029 2103 2138 2180 2250 2298 2317 2306 2272 2239 2206 2140 2059 1998 2059 2064 2454 2652 2721 2849 3073 3204 3204 3149 3121 3095 3338 3614 3955 3751 3551 3254 3384 3692 3244 3065 3290 3666 3889 4171 4320 4206 4378 4809 5078 4825 4043 3647 3638 3823 4198 4597 4658 4702 4634 4280 4021 3851 3952 4161 4217 4356 4494 4501 4449 4393 4376 4423 4445 4472 4698 4884 4997 5208 5658 5805 5273 4605 4262 4143 4196 4268 4472 4682 5157 6131 6837 7506 8169 8235 8260 8328 8346 8262 8115 8396 8642 8892 8865 9087 9321 9387 9246 9080 8764 9057 9395 9703 9833 9933 10211 10545 11024 11412 11634 11796 11868 11737 11324 10887 11454 11914 11916 11938 12102 12232 12276 11768 11191 10628 9829 9673 9626 9805 9902 10262 10865 11090 11304 12047 12483 12174 11201 10817 11367 11477 11154 10809 11015 11249 11500 11963 11998 11974 11713 11405 11170 11013 11215 11305 11300 11254 11150 11445 11738 12030 12380 12958 12400 12749 13329 13763 13172 12524 12060 11770 11187 11267 11664 11852 12219 13439 13888 13633 13765 13725 12920 12045 12109 12010 11984 12210 12210 11845 11642 11322 10967 10739 10224 9781 9352 8972 8549 8537 8287 8027 7869 7680 7411 7202 7179 7162 7149 7185 7136 7210 7240 7274 7381 7510 7762 7871 8145 8379 8517 8541 8646 8730 8982 9247 9522 9747 10330 10590 10994 11475 11748 12023 12402 12600 12740 12980 13230 13495 13895 14227 14605 14210 13763 13320 12838 12423 12092 11790 11659 11460 11340 11110 11074 10670 10655 10590 10590 10590 10785 11225 11873 12418 13140 14022 15075 15225 14860 14565 14215 13767 13347 12942 12903 12704 12435 12247 12390 10733 10140 9796 10129 10600 11258 12107 12924 13583 14327 14750 15332 15802 15417 15022 14374 13799 13190 12190 11588 10898 10192 9964 9841 9602 9656 9714 9691 9366 8807 7642 6572 5761 4851 4241 3831 3623 3583 3503 3475 4331 5429 5441 6022 6627 7992 8704 9455 9759 10432 11085 11337 11445 11552 12110 12540 12925 13420 13844 14192 13900 13100 12507 12152 11968 11752 11825 11860 11898 12274 11942 11098 10119 9494 8952 9262 9609 10015 10397 10454 10850 11487 11969 12518 13075 13237 13223 12593 12257 12039 11705 11494 11222 10523 10041 9557 9227 8861 8890 8332 7462 7045 6075 5612 5392 5217 5060 4965 4908 4473 4418 5078 5721 6310 7269 7999 8702 9472 9622 9639 9790 9687 9699 9915 10141 10424 10748 11117 11390 11805 12175 12533 13020 13303 13330 13019 12695 12250 11705 11249 11014 11530 11975 12375 12884 13380 13953 14605 14983 14528 14084 14010 14277 13768 13615 13209 12683 12313 12000 11705 11984 12355 12770 13060 13325 13778 14267 14808 14824 14430 13998 13165 12489 11874 11303 11035 10912 11375 11754 12047 12510 12728 12860 12785 12708 12853 12815 12475 12055 11448 10955 10565 9872 9249
0 0 0 0 0 0 0 0 0 0 0 0 0 0 0 0 0 0 0 0 0 0 0 0 0 0 0 0 0 0 0 0 0 0 0 0 0 0 0 0 0 0 0 0 0 0 0 0 0 0 0 0 0 0 0 0 0 0 0 0 0 0 0 0 0 0 0 0 0 0 0 0 0 0 0 0 0 0 0 0 0 0 0 0 0 0 0 0 0 0 0 0 0 0 0 0 0 0 0 0 0 0 0 0 0 0 0 0 0 0 0 0 0 0 0 0 0 0 0 0 0 0 0 0 0 0 0 0 0 0 0 0 0 0 0 0 0 0 0 0 0 0 0 0 0 0 0 0 0 0 0 0 0 0 0 0 0 0 0 0 0 1782 1786 1784 1784 1791 1811 1817 1847 1893 1931 1916 1828 1665 1229 867 659 491 263 184 146 134 128 122 124 124 128 128 123 122 122 122 125 148 174 183 184 183 183 182 182 184 179 152 154 123 128 138 157 122 122 128 132 135 141 142 142 147 147 149 153 151 162 225 258 342 481 535 508 507 555 865 881 884 874 852 835 828 835 801 601 566 800 827 658 794 970 1065 1293 1485 1587 1585 1581 1575 1583 1664 1717 1724 1715 1721 1706 1705 1748 1774 1802 1833 1845 1852 1869 1871 1876 1876 1876 1874 1864 1851 1828 1772 1724 1669 1636 1624 1584 1600 1548 1544 1443 1202 872 918 1016 1093 1205 1270 1350 1424 1472 1498 1719 1950 1999 1979 1989 2059 2138 2180 2185 2146 2218 2289 2344 2383 2378 2365 2341 2304 2253 2211 2144 1993 2158 2310 2633 2742 2837 3053 3139 3164 3145 3099 3099 3187 3377 3668 4091 4351 4254 3532 3339 3327 3101 3094 3374 3654 3829 4150 4567 4544 4473 4958 5082 4729 3962 3638 3653 3968 4311 4510 4473 4307 4151 3953 3844 3825 4023 4134 4241 4400 4401 4380 4366 4363 4404 4512 4603 4849 5418 5599 5715 5764 6157 6391 5748 5094 4597 4193 4206 4278 4536 4823 5253 6185 6974 7692 8628 8907 9020 9073 9075 8806 8724 8837 9202 9475 9486 9500 9883 10025 9976 9881 9569 9760 10039 10316 10395 10400 10458 10777 11200 11451 11561 11654 11702 11700 11673 11565 11580 11562 11542 11483 11676 11792 11885 11901 11508 10981 10455 10440 10400 10369 10398 10712 11211 11587 11828 12023 12466 12555 11964 11560 11625 11925 11703 11665 11603 11427 11375 10980 11154 11240 11360 11520 11710 11887 12118 12290 12529 12605 12503 12642 12924 13174 13374 13600 13298 13695 13727 13980 13598 12933 12795 12314 11880 12237 12552 12485 13058 13743 14020 14465 14083 13220 12652 11868 11445 11455 11485 11559 11473 11325 11194 10958 10405 9920 9732 9447 9222 8952 8510 7987 7777 7556 7337 7116 6991 6991 6952 6872 6836 6862 6881 6999 7047 7089 7155 7217 7257 7310 7444 7615 7819 7887 8085 8337 8609 8841 9199 9511 9981 10330 10595 11010 11327 11602 11883 12068 12195 12399 12579 12755 13200 13520 13863 14383 14507 13989 13532 13445 12949 12318 12128 11860 11975 11869 11779 10890 10673 10615 10595 10590 10590 11369 11592 12155 12950 13632 14299 15360 14980 14889 14617 14355 13953 13735 13390 13158 12952 13244 12747 11170 10570 10132 10105 10544 11220 11923 12625 13214 13908 14440 15123 15398 15090 14784 14074 13484 12938 11930 11860 11545 10512 10177 9746 9282 9027 9129 9202 9070 8530 7282 6282 5547 4566 4172 3887 3653 3622 3563 3533 4301 5982 5950 6356 7067 8615 8921 9330 9702 10222 10662 10884 10935 11199 11793 12179 12510 13043 13465 13850 14034 13290 12932 12620 12420 12399 12403 12428 12419 12793 12072 11238 10222 9627 9452 9552 10019 10494 10727 10830 10935 11402 11792 12155 12774 13082 13187 12900 12564 12245 11915 11615 11302 10615 10130 9431 8790 8345 8237 7869 7287 6842 6172 5824 5505 5287 5120 4975 4633 4468 4357 4990 5502 6117 7094 7811 8542 9227 9426 9416 9740 9866 10027 10009 10288 10518 10892 11303 11753 12073 12373 12654 13038 13413 13605 13185 12714 12235 11733 11464 11427 11722 12124 12554 13103 13580 14097 14740 15190 15068 14990 14910 14712 13982 13810 13699 13019 12680 12322 11958 12112 12455 12855 13115 13382 13815 14233 14839 14830 14235 13523 12608 11939 11489 10969 10947 11262 11825 12315 12592 12770 13130 13282 13474 13452 13377 12799 12438 12037 11378 10852 10480 9822 9534
0 0 0 0 0 0 0 0 0 0 0 0 0 0 0 0 0 0 0 0 0 0 0 0 0 0 0 0 0 0 0 0 0 0 0 0 0 0 0 0 0 0 0 0 0 0 0 0 0 0 0 0 0 0 0 0 0 0 0 0 0 0 0 0 0 0 0 0 0 0 0 0 0 0 0 0 0 0 0 0 0 0 0 0 0 0 0 0 0 0 0 0 0 0 0 0 0 0 0 0 0 0 0 0 0 0 0 0 0 0 0 0 0 0 0 0 0 0 0 0 0 0 0 0 0 0 0 0 0 0 0 0 0 0 0 0 0 0 0 0 0 0 0 0 0 0 0 0 0 0 0 0 0 0 0 0 0 0 0 0 0 0 0 1797 1795 1799 1829 1842 1851 1888 1925 1920 1806 1627 1530 1074 757 525 310 225 149 138 131 124 123 124 126 129 129 126 124 126 130 148 166 178 180 180 179 178 179 178 161 153 151 134 138 146 156 122 122 123 130 141 146 146 151 137 152 152 152 153 155 137 137 160 195 249 322 332 579 780 858 857 855 847 826 815 808 782 600 456 652 714 604 852 976 1082 1263 1434 1585 1589 1585 1578 1576 1607 1658 1697 1712 1738 1754 1742 1759 1773 1802 1830 1843 1852 1868 1879 1888 1904 1910 1909 1899 1885 1865 1826 1789 1755 1717 1696 1673 1635 1605 1482 1232 988 874 1004 1094 1180 1216 1301 1406 1561 1706 1842 1980 2073 2083 2060 2031 2062 2156 2232 2336 2303 2319 2257 2343 2381 2400 2362 2335 2275 2196 2174 2102 1998 2248 2410 2682 2809 2883 3124 3208 3221 3194 3164 3138 3237 3448 3796 4208 4458 4598 4066 3679 3417 3069 3131 3399 3654 3862 4141 4661 4680 4570 5139 4910 4410 3777 3638 3686 4046 4256 4455 4402 4118 3928 3842 3860 4015 4094 4169 4239 4267 4260 4354 4389 4402 4458 4692 5014 5366 5932 6206 6241 6361 6603 6657 5984 5386 4863 4282 4215 4300 4555 4864 5286 6334 7050 7766 8725 9145 9351 9461 9450 9158 9234 9336 9538 9800 9845 9791 10151 10322 10351 10287 10117 10306 10442 10534 10594 10610 10762 11025 11334 11414 11453 11489 11505 11481 11482 11501 11435 11203 11098 11186 11559 11592 11624 11635 11590 11415 10996 10869 10829 10773 10880 11054 11383 11694 11859 12078 12323 12447 12361 12186 12205 12112 11684 11309 10915 10770 10635 10345 10520 10590 10747 10720 11465 10894 11472 11635 11750 11929 12275 12333 12292 12538 13039 13613 13825 14050 14194 14183 13783 13633 13447 12824 12960 13490 13670 13297 13719 14490 14780 14343 13828 13005 12023 11715 11238 10965 10993 10960 10803 10650 10558 10333 9847 9405 8909 8667 8441 8234 8056 7850 7467 7210 7074 6967 6755 6722 6686 6664 6661 6671 6697 6824 6872 6970 7012 7064 7127 7146 7215 7279 7391 7470 7672 7937 8160 8526 8972 9247 9661 9966 10309 10700 11017 11302 11513 11662 11782 12014 12154 12447 12750 13107 13490 14013 14600 14317 13985 13843 13228 12862 12554 12499 12469 12303 12200 11660 10825 10703 10675 10694 10798 11327 11635 12069 12944 13615 14432 15159 15372 15250 14900 14670 14410 14079 13790 13629 13455 13897 12682 11325 10733 10340 10295 10470 11089 11915 12440 12980 13788 14270 14735 15265 14837 14545 13758 13250 12618 12187 12204 11832 11075 10603 10154 9540 9059 8587 8689 8692 8354 7051 6071 5319 4583 4170 3896 3716 3662 3565 3607 4260 6047 6075 6486 7351 8972 9205 9272 9582 9892 10201 10337 10515 10965 11463 11883 12320 12928 13382 13792 14134 13739 13345 12920 12775 12839 12843 12828 12867 13045 12174 11332 10298 9732 9877 9865 10231 10698 10943 11065 11209 11418 11707 12015 12497 12843 13078 13005 12790 12429 12003 11700 11359 10750 10243 9562 8677 8082 7639 7232 6929 6587 6262 5940 5592 5291 5126 4971 4961 4668 4328 4835 5414 6042 6986 7676 8255 8831 9051 9292 9589 9846 10047 10147 10324 10532 10984 11363 11770 12185 12487 12758 13189 13525 13803 13342 12803 12265 11788 11798 11824 12035 12315 12720 13259 13722 14132 14745 15174 15524 15263 15122 14935 14440 14095 13930 13415 12997 12542 12160 12188 12510 12890 13134 13400 13832 14269 14897 14555 13892 13217 12332 11687 11340 10938 11212 11509 12075 12580 12917 13183 13268 13665 13953 14029 13533 12865 12482 12100 11502 10997 10624 10126 9606
0 0 0 0 0 0 0 0 0 0 0 0 0 0 0 0 0 0 0 0 0 0 0 0 0 0 0 0 0 0 0 0 0 0 0 0 0 0 0 0 0 0 0 0 0 0 0 0 0 0 0 0 0 0 0 0 0 0 0 0 0 0 0 0 0 0 0 0 0 0 0 0 0 0 0 0 0 0 0 0 0 0 0 0 0 0 0 0 0 0 0 0 0 0 0 0 0 0 0 0 0 0 0 0 0 0 0 0 0 0 0 0 0 0 0 0 0 0 0 0 0 0 0 0 0 0 0 0 0 0 0 0 0 0 0 0 0 0 0 0 0 0 0 0 0 0 0 0 0 0 0 0 0 0 0 0 0 0 0 0 0 0 0 0 1815 1820 1852 1862 1855 1862 1899 1907 1840 1767 1654 1140 870 603 451 274 152 143 133 122 122 123 126 128 135 139 131 131 138 148 160 170 175 175 174 175 173 164 157 152 147 150 146 152 152 124 122 122 122 150 152 152 151 153 152 137 152 152 148 137 140 137 139 192 209 231 404 616 743 798 811 812 810 806 793 738 614 392 490 486 675 898 956 1093 1210 1378 1567 1587 1585 1585 1574 1578 1582 1642 1708 1719 1758 1776 1771 1773 1800 1825 1838 1849 1865 1880 1904 1960 1961 1955 1940 1920 1900 1869 1838 1812 1783 1766 1750 1703 1562 1226 910 873 929 1049 1142 1230 1306 1332 1504 1826 1997 1986 1989 2022 2055 2076 2079 2073 2134 2160 2192 2252 2248 2266 2274 2254 2264 2274 2262 2247 2196 2083 1996 2019 2317 2476 2703 2786 2965 3294 3349 3311 3319 3305 3163 3199 3491 3882 4251 4480 4639 4697 4029 3503 3062 3142 3483 3703 3964 4443 4822 4713 4586 4971 4652 4089 3748 3638 3670 4020 4238 4457 4249 3941 3778 3828 3900 4024 4132 4175 4244 4344 4413 4461 4499 4599 4722 5114 5489 5594 6388 6577 6707 6754 6850 6837 6151 5571 5054 4400 4235 4318 4547 4852 5220 6272 6938 7672 8664 9229 9535 9799 9805 9524 9559 9730 9878 10006 10042 10179 10387 10530 10624 10571 10473 10606 10656 10742 10778 10843 10967 11162 11314 11359 11387 11381 11163 11100 11373 11283 11230 10945 11038 11263 11489 11485 11415 11368 11363 11480 11497 11337 11320 11251 11253 11094 11091 11330 11401 11874 12029 12108 12176 12164 12184 11672 11148 10454 10250 10217 10192 9972 9900 9737 9972 9972 10655 10300 10199 10728 11040 11240 11504 11658 11755 11947 12750 13265 13650 14015 14185 14097 14135 14079 13855 13502 14003 14333 14360 14255 14650 14720 14310 13963 13540 12725 12035 11339 10949 10369 10337 10293 10249 10082 9945 9711 9259 8922 8482 8156 8057 7922 7617 7432 7230 6952 6872 6781 6571 6587 6599 6602 6611 6637 6674 6684 6700 6809 6869 6937 6981 7035 7110 7167 7174 7251 7372 7591 7737 8237 8597 8840 9224 9546 9856 10325 10589 10919 11104 11243 11407 11657 11865 12125 12515 12940 13385 13918 14370 14690 14410 14109 13670 13178 13045 12964 12799 12732 12733 12172 11665 11189 10849 11065 11202 11433 11775 12190 13142 13585 14284 15100 15667 15515 15240 14995 14737 14438 14190 14025 14060 13718 12414 11427 10835 10395 10535 10688 11004 11905 12445 12915 13489 14005 14609 15240 14539 14063 13435 12979 12405 12433 12627 12513 11667 11120 10597 9829 9355 8911 8177 8257 8175 7071 5985 5260 4438 4148 3938 3758 3692 3576 3603 4061 5422 6002 6194 7135 8475 9012 8914 9159 9351 9551 9912 10181 10624 11265 11839 12420 13115 13607 13945 14143 14167 13900 13358 13127 13228 13330 13295 13450 13119 12245 11549 10579 10217 10383 10472 10524 11020 11188 11322 11498 11669 11788 11950 12312 12607 12880 12982 12917 12669 12113 11780 11409 10902 10408 9814 8990 8575 8002 7307 6874 6537 5991 5887 5542 5249 5137 5037 5142 5040 4562 4596 5237 5829 6739 7387 7874 8370 8717 9047 9412 9817 10057 10192 10323 10540 11047 11350 11710 12098 12400 12725 13200 13479 13782 13435 12917 12397 12068 12154 12193 12478 12690 12965 13333 13710 14114 14570 15050 15429 15745 15430 15233 14830 14684 14298 13975 13368 12822 12422 12307 12518 12890 13137 13409 13914 14355 14847 14234 13575 12765 12010 11557 11249 10953 11302 11775 12327 12729 13135 13489 13725 14110 14433 14125 13605 12965 12533 12123 11510 11063 10695 10187 9642
0 0 0 0 0 0 0 0 0 0 0 0 0 0 0 0 0 0 0 0 0 0 0 0 0 0 0 0 0 0 0 0 0 0 0 0 0 0 0 0 0 0 0 0 0 0 0 0 0 0 0 0 0 0 0 0 0 0 0 0 0 0 0 0 0 0 0 0 0 0 0 0 0 0 0 0 0 0 0 0 0 0 0 0 0 0 0 0 0 0 0 0 0 0 0 0 0 0 0 0 0 0 0 0 0 0 0 0 0 0 0 0 0 0 0 0 0 0 0 0 0 0 0 0 0 0 0 0 0 0 0 0 0 0 0 0 0 0 0 0 0 0 0 0 0 0 0 0 0 0 0 0 0 0 0 0 0 0 0 0 0 0 0 0 0 1845 1855 1850 1842 1823 1827 1851 1825 1784 1701 1276 1043 776 559 297 198 154 143 132 126 122 124 128 131 135 140 139 140 146 158 161 167 167 168 166 165 156 156 153 152 152 153 152 154 147 143 157 122 122 139 151 152 152 152 152 149 142 142 152 153 148 143 137 146 177 175 225 493 603 681 757 770 762 710 677 618 360 310 402 728 917 974 1078 1167 1306 1534 1588 1597 1585 1584 1564 1567 1592 1637 1703 1740 1779 1799 1795 1808 1820 1829 1842 1860 1876 1896 1970 1987 1979 1964 1949 1927 1911 1898 1880 1849 1839 1823 1663 1273 877 863 973 988 1031 1110 1233 1356 1462 1753 1959 1988 2010 2012 2013 2012 2044 2055 2064 2073 2092 2099 2106 2121 2137 2152 2152 2179 2202 2221 2220 2174 2030 1969 2132 2399 2605 2768 3002 3202 3335 3357 3325 3363 3224 3208 3389 3430 3785 4226 4455 4648 4852 4235 3410 3071 3226 3474 3790 4111 4531 4871 4625 4570 4601 4689 4216 3653 3638 3755 4180 4229 4311 4017 3730 3720 3976 4162 4211 4263 4366 4534 4772 4895 4938 4925 5176 5562 5979 6530 6693 6697 6740 6824 6882 7075 7010 6242 5621 5036 4399 4278 4362 4556 4888 5322 6314 7023 7749 8692 9253 9683 10166 10083 9899 9942 10061 10187 10310 10312 10460 10582 10667 10677 10641 10634 10634 10626 10675 10717 10836 10937 11099 11079 11237 11326 11356 10995 10823 11235 10977 10862 10828 11077 11256 11322 11255 11152 10985 11188 11309 11502 11724 11780 11445 11028 10563 10491 10525 11017 11449 11550 11601 11624 11429 11490 11295 10793 10120 9496 9572 9512 9190 9129 8934 9092 9507 10069 9816 9317 9726 10174 10554 10813 10700 10985 11592 12230 12674 13069 13300 13675 13924 14183 14354 14474 14565 14884 14995 15220 15145 15185 14280 13770 13584 13385 12189 11593 11052 10559 10185 9512 9517 9422 9236 9055 8887 8577 8315 8097 7800 7400 7364 7162 7040 6864 6620 6601 6524 6444 6519 6616 6786 6852 6905 6911 6895 6890 6895 6899 6867 6901 6915 6950 7009 7052 7094 7161 7262 7385 7762 8054 8311 8707 8985 9244 9707 9976 10345 10519 10808 11092 11453 11794 12119 12605 12963 13437 13918 14340 14957 14889 14792 14370 13855 13660 13443 13355 13270 13248 12953 12735 12662 12515 12567 12175 11935 12055 12605 13572 13865 14522 15133 15912 15953 15649 15442 15235 14932 14742 14908 14545 13210 12430 11390 10807 10760 11192 11324 11844 12024 12133 12682 13320 13822 14338 14823 14284 13843 13372 13188 12890 12815 12990 13050 12120 11422 10722 9887 9300 8826 8357 7467 7586 6722 5892 5199 4496 4182 3998 3797 3717 3636 3656 3796 4355 5770 6160 6654 7384 8149 8657 8401 8607 9047 9340 9842 10315 11220 11900 12475 13107 13593 14030 14084 14120 14147 14037 13837 13847 14147 14074 14310 13108 12352 11694 11044 10680 10892 11213 11300 11205 11705 11727 11760 11920 12030 12132 12277 12400 12647 12790 12855 12745 12230 11860 11460 10940 10588 10002 9240 8832 8527 7891 7282 6801 6172 5879 5629 5297 5146 4998 4797 4756 4515 4538 4982 5612 6389 6926 7326 7862 8282 8701 9284 9715 10011 10186 10280 10465 11060 11395 11642 11985 12230 12532 12985 13333 13595 13515 13037 12792 12648 12675 12765 13127 13215 13255 13557 13813 14135 14540 14938 15444 15848 16074 15805 15412 15307 15442 14775 14143 13390 12930 12803 12862 12974 13134 13390 14002 14498 14803 13907 13183 12488 11770 11387 11110 11250 11723 12190 12844 13080 13448 13989 14453 14627 15030 14318 13735 13058 12595 12090 11543 11267 10830 10139 9605
0 0 0 0 0 0 0 0 0 0 0 0 0 0 0 0 0 0 0 0 0 0 0 0 0 0 0 0 0 0 0 0 0 0 0 0 0 0 0 0 0 0 0 0 0 0 0 0 0 0 0 0 0 0 0 0 0 0 0 0 0 0 0 0 0 0 0 0 0 0 0 0 0 0 0 0 0 0 0 0 0 0 0 0 0 0 0 0 0 0 0 0 0 0 0 0 0 0 0 0 0 0 0 0 0 0 0 0 0 0 0 0 0 0 0 0 0 0 0 0 0 0 0 0 0 0 0 0 0 0 0 0 0 0 0 0 0 0 0 0 0 0 0 0 0 0 0 0 0 0 0 0 0 0 0 0 0 0 0 0 0 0 0 0 0 1862 1852 1849 1842 1805 1775 1763 1789 1764 1710 1375 1076 815 534 346 216 159 146 140 131 126 122 122 126 130 134 134 136 144 155 159 161 161 160 164 162 156 161 159 156 156 155 153 154 153 153 157 143 122 135 158 171 165 152 149 145 144 152 152 149 146 153 150 153 139 156 172 231 385 541 638 658 639 594 569 494 292 292 491 765 908 1000 1102 1157 1285 1536 1588 1604 1585 1585 1556 1564 1580 1616 1676 1712 1759 1803 1794 1805 1817 1825 1835 1855 1865 1879 1942 1977 1961 1931 1901 1894 1886 1889 1867 1861 1854 1795 1519 1219 824 910 996 1020 1059 1161 1269 1408 1595 1839 2046 2064 2017 1987 1987 2010 2022 2037 2062 2069 2069 2069 2073 2088 2100 2111 2134 2177 2206 2231 2227 2175 2015 1950 2105 2395 2621 2798 3063 3212 3263 3269 3277 3189 3198 3340 3370 3544 3652 4153 4464 4614 4574 3940 3391 3049 3333 3559 3791 4080 4508 5020 4744 4674 4408 4384 4110 3642 3649 3821 4146 4135 4070 3818 3706 3889 4163 4227 4293 4489 4623 4802 5129 5300 5395 5415 5618 6078 6721 6769 6791 6809 6860 6909 7069 7306 6992 6154 5498 4865 4347 4347 4425 4555 4825 5244 6298 6981 7704 8730 9353 9830 10386 10350 10224 10232 10294 10376 10517 10453 10608 10759 10750 10635 10585 10563 10550 10540 10589 10620 10747 10841 10963 10914 11048 11172 11219 10959 10696 11038 10770 10550 10803 10876 11207 11133 10893 10805 10975 11236 11481 11666 11855 11654 11026 10728 10208 9931 10245 10603 11087 11046 11283 11018 10805 10939 10908 10608 10087 9127 8735 8782 8469 8432 8316 8577 9224 9730 9226 8717 9172 9614 9994 10227 9900 10365 11072 11877 12042 12455 12594 13227 13430 13594 13949 13900 14050 14205 14018 13772 14515 14347 13435 12903 12673 12145 12025 11577 10685 10354 9880 9221 8936 8871 8712 8582 8384 8134 7972 7824 7346 7120 6995 6927 6817 6642 6480 6455 6386 6536 6704 6820 7009 7082 7181 7190 7167 7167 7176 7172 7131 7060 7071 7094 7101 7086 7047 7099 7141 7195 7472 7674 7902 8317 8586 8849 9252 9611 9882 10156 10687 11199 11745 12050 12439 12905 13117 13480 13970 14480 15195 15445 15173 14967 14450 14177 13920 13890 13830 13695 13455 13285 13114 12954 13058 13100 12938 12977 13263 13897 14205 14675 15220 15938 16267 15950 15680 15509 15274 15120 14397 13888 12967 12360 11404 10910 10740 11344 11618 11992 12450 12485 12773 13310 13740 14127 14748 14394 14250 13687 13740 13528 13235 13257 12970 12067 11342 10560 9821 9291 8769 8019 7316 6782 6560 5880 5124 4478 4085 3983 3812 3728 3652 3621 3753 4085 5285 5942 6372 6939 7504 8350 7882 8235 8617 9239 9791 10288 11080 11745 12350 12957 13409 13764 14035 14064 14079 14062 14023 13952 14000 14328 14505 13037 12497 12123 11690 11528 11323 11652 11884 11820 11772 12160 12163 12094 12175 12274 12389 12490 12612 12742 12778 12730 12239 11854 11462 10938 10622 10175 9507 9021 8572 7999 7572 7074 6377 6011 5722 5311 5142 4983 4687 4478 4500 4667 5031 5407 6067 6624 7075 7537 7905 8344 9002 9659 9984 10217 10258 10362 10980 11300 11632 11889 12100 12360 12800 13118 13439 13675 13345 13180 13065 13110 13404 13610 13562 13562 13788 13952 14205 14615 15117 15495 15830 15925 15993 15943 15998 15489 14950 14590 14080 13590 13293 13107 13025 13203 13422 14018 14429 14677 13714 12990 12238 11597 11377 11090 11568 12030 12627 13270 13530 13722 14448 14855 15332 15240 14479 13810 13037 12639 12294 11725 11325 10855 10117 9747
0 0 0 0 0 0 0 0 0 0 0 0 0 0 0 0 0 0 0 0 0 0 0 0 0 0 0 0 0 0 0 0 0 0 0 0 0 0 0 0 0 0 0 0 0 0 0 0 0 0 0 0 0 0 0 0 0 0 0 0 0 0 0 0 0 0 0 0 0 0 0 0 0 0 0 0 0 0 0 0 0 0 0 0 0 0 0 0 0 0 0 0 0 0 0 0 0 0 0 0 0 0 0 0 0 0 0 0 0 0 0 0 0 0 0 0 0 0 0 0 0 0 0 0 0 0 0 0 0 0 0 0 0 0 0 0 0 0 0 0 0 0 0 0 0 0 0 0 0 0 0 0 0 0 0 0 0 0 0 0 0 0 0 0 0 0 1853 1849 1845 1803 1772 1693 1706 1736 1683 1311 1113 916 718 467 224 162 151 147 136 128 122 124 122 125 125 125 131 145 149 155 154 156 155 160 156 156 164 163 162 158 154 154 153 143 153 153 150 122 141 169 184 186 161 152 148 152 152 149 151 152 152 152 150 137 138 157 176 201 238 306 367 410 418 443 445 245 261 572 762 901 1021 1148 1207 1264 1495 1566 1593 1588 1585 1544 1557 1570 1594 1659 1702 1760 1793 1791 1801 1815 1820 1824 1838 1851 1866 1904 1957 1945 1894 1693 1559 1550 1494 1457 1390 1407 1491 1318 1146 824 945 1008 1047 1109 1193 1305 1498 1776 1928 1994 2046 2144 2136 2064 1999 2003 2010 2073 2084 2095 2098 2098 2097 2100 2119 2161 2204 2243 2259 2268 2156 1947 1908 2285 2457 2639 2764 2864 2989 3078 3097 3084 3052 3169 3328 3464 3582 3953 4278 4448 4719 4442 3753 3302 3064 3456 3580 3835 4065 4537 5033 4774 4787 4289 4128 3827 3635 3621 3857 4142 4091 3981 3706 3827 4038 4203 4265 4417 4635 4804 5106 5567 5850 5881 5940 5949 6387 6789 6842 6856 6896 6961 7032 7229 7317 6810 5959 5362 4725 4365 4405 4499 4673 4877 5285 6321 6989 7734 8514 9312 9868 10494 10630 10596 10525 10558 10627 10762 10710 10764 10920 10762 10571 10496 10454 10444 10463 10476 10530 10718 10764 10796 10807 10759 10850 10913 10865 10601 10816 10706 10463 10599 10727 11012 10867 10746 11040 11271 11353 11413 11445 11358 11240 10510 10198 9893 9461 9791 10269 10542 10467 10964 10624 10141 10293 10318 10196 10032 9297 8482 8037 7861 7895 7785 8267 8814 9354 8797 8325 8584 9126 9550 9677 9561 10209 10798 11407 11438 11850 12024 12608 12788 12923 13274 13577 13390 13385 13859 12715 13332 13282 11923 12055 11737 11529 11473 11130 10572 10012 9529 9042 8557 8356 8192 8072 7954 7806 7651 7369 7132 6952 6707 6617 6552 6490 6395 6352 6492 6669 6935 7049 7307 7510 7595 7641 7690 7732 7741 7629 7651 7562 7464 7369 7225 7174 7117 7057 7066 7070 7254 7397 7696 8130 8329 8515 8810 9142 9472 9980 10505 10960 11635 12039 12600 13217 13543 13660 14045 14673 15449 16175 15578 15155 14840 14575 14434 14275 14155 14052 13920 13790 13643 13497 13305 13348 13427 13479 13683 14162 14509 14888 15465 15850 16637 16258 16020 15803 15602 14499 13730 13050 12558 11998 11260 10917 10929 11198 11600 12072 12712 12855 13030 13545 13995 14278 15192 14754 14615 14313 14390 14214 13812 13572 12837 11667 10798 10275 9566 9017 8585 8100 7497 6937 6141 5875 5431 4733 4227 3948 3825 3753 3665 3601 3667 3813 4570 5417 5956 6471 6957 7767 7471 7797 8372 9007 9472 9950 10794 11423 12005 12643 13002 13423 13695 13837 13875 13653 13490 13359 13313 13670 14284 13318 12790 12314 12260 12108 11929 11977 12403 12590 11922 12140 12645 12602 12488 12454 12542 12640 12740 12775 12785 12740 12240 11880 11517 11030 10640 10268 9656 9305 8892 8316 7897 7416 6699 6161 5816 5321 5140 4966 4673 4486 4538 4735 4968 5175 5931 6429 6760 7259 7606 8055 8877 9559 9907 10280 10285 10359 10875 11180 11555 11794 11944 12177 12582 12905 13260 13625 13784 13614 13490 13575 13840 14119 13983 13970 14105 14274 14472 14823 15095 15300 15544 15610 15644 15770 15660 15323 14922 14530 14050 13579 13335 13137 13048 13410 13649 14173 14678 14367 13560 12850 12195 11487 11302 11278 11854 12324 12957 13585 13923 14285 14808 15285 15593 15365 14509 13928 13287 12808 12425 11865 11383 10967 10333 9842
0 0 0 0 0 0 0 0 0 0 0 0 0 0 0 0 0 0 0 0 0 0 0 0 0 0 0 0 0 0 0 0 0 0 0 0 0 0 0 0 0 0 0 0 0 0 0 0 0 0 0 0 0 0 0 0 0 0 0 0 0 0 0 0 0 0 0 0 0 0 0 0 0 0 0 0 0 0 0 0 0 0 0 0 0 0 0 0 0 0 0 0 0 0 0 0 0 0 0 0 0 0 0 0 0 0 0 0 0 0 0 0 0 0 0 0 0 0 0 0 0 0 0 0 0 0 0 0 0 0 0 0 0 0 0 0 0 0 0 0 0 0 0 0 0 0 0 0 0 0 0 0 0 0 0 0 0 0 0 0 0 0 0 0 0 0 1852 1850 1849 1814 1780 1734 1647 1578 1620 1581 1528 1369 911 524 285 182 168 158 143 132 122 128 126 124 125 125 128 143 152 150 154 156 154 154 154 170 176 173 168 159 155 153 153 153 143 158 146 122 142 185 183 184 173 154 154 152 150 152 152 152 152 152 153 154 137 154 158 164 169 175 178 179 235 379 306 222 279 486 831 1060 1244 1369 1395 1376 1374 1450 1513 1535 1532 1534 1551 1566 1584 1651 1707 1767 1797 1790 1798 1805 1809 1817 1823 1830 1846 1881 1914 1920 1766 1535 1359 1273 1163 954 888 923 1036 1027 959 825 891 960 1049 1168 1239 1310 1641 1956 2036 2107 2115 2119 2115 2125 2123 2095 2025 1986 2039 2087 2115 2176 2200 2218 2236 2251 2283 2306 2294 2265 1978 1861 1951 2333 2490 2738 2987 3079 3096 3053 2996 2988 3162 3263 3501 3673 3677 4006 4455 4632 4849 4287 3625 3247 3125 3496 3671 4001 4330 4674 5021 4944 4880 4433 4194 3841 3651 3620 3834 4022 3846 3706 3816 4063 4172 4234 4300 4429 4774 5074 5527 5989 6022 6096 6223 6266 6583 6840 6881 6907 6963 7111 7141 7361 7343 6776 5880 5318 4750 4475 4514 4612 4743 5049 5545 6405 7070 7756 8610 9238 9875 10452 10674 10949 11000 11006 10996 11112 11035 11066 10994 10775 10559 10367 10279 10264 10378 10318 10467 10677 10667 10577 10614 10601 10546 10633 10638 10485 10616 10530 10265 10322 10370 10401 10758 11001 11037 10939 10930 10836 10577 10606 10697 10357 9645 9242 8840 9246 9677 9730 10228 10587 9962 9383 9357 9671 9471 9514 9366 8702 7727 7124 7216 7229 7841 8335 8760 8301 7802 8021 8577 8997 8862 9176 9792 10407 10688 10369 10640 11324 11774 11813 11975 12663 13093 11869 11858 12430 11803 11595 11660 11130 11165 11032 10808 10663 10522 10040 9395 8914 8499 8219 7926 7759 7656 7516 7324 7175 7022 6752 6569 6467 6419 6377 6319 6331 6499 6809 7166 7481 7821 8099 8197 8437 8592 8647 8630 8530 8382 8290 8270 8087 7930 7795 7669 7532 7351 7216 7141 7087 7220 7474 7946 8124 8242 8381 8545 8899 9499 9987 10528 11180 11618 12072 12769 13292 13804 14530 14970 15285 15650 15978 15830 15554 15207 14947 14725 14582 14489 14325 14308 14279 14008 13930 13815 13910 14068 14298 14597 14804 14997 15817 16180 16968 16600 15928 15317 14548 13839 13377 12877 12008 11632 11347 11367 11315 11240 11872 12465 13029 13354 13529 14179 14438 14630 15048 14744 14620 14610 14274 13853 13539 13145 12734 11960 11183 10099 9332 8720 8217 7651 7207 6880 6640 6390 5754 4947 4420 4028 3838 3770 3731 3693 3628 3628 4028 4811 5394 5804 6295 6600 6904 7432 7870 8559 9006 9426 10162 10782 11347 11975 12313 12897 13160 13194 13103 12835 12600 12552 12698 13054 13583 14140 13279 12830 12610 12634 12465 12630 12568 12890 12315 12028 12397 13165 13288 13177 13087 13138 13182 13058 12970 12768 12249 11893 11537 10995 10588 10201 9701 9427 9100 8577 8167 7689 6951 6380 5896 5332 5139 4930 4757 4636 4483 4657 4738 4878 5774 6164 6547 6879 7327 7852 8707 9417 9734 10318 10380 10385 10688 10945 11308 11694 11775 11910 12375 12675 12954 13304 13580 13850 14060 14185 14242 14240 14175 14102 14235 14285 14363 14680 14832 14960 15183 15128 15203 15413 15480 14983 14555 14242 13868 13594 13680 13650 13702 13915 14155 14689 15028 14302 13369 12682 12050 11499 11344 11615 12053 12537 13027 13765 14267 14670 15220 15535 15863 15520 14827 14145 13412 13019 12594 12078 11577 11274 10713 10109
0 0 0 0 0 0 0 0 0 0 0 0 0 0 0 0 0 0 0 0 0 0 0 0 0 0 0 0 0 0 0 0 0 0 0 0 0 0 0 0 0 0 0 0 0 0 0 0 0 0 0 0 0 0 0 0 0 0 0 0 0 0 0 0 0 0 0 0 0 0 0 0 0 0 0 0 0 0 0 0 0 0 0 0 0 0 0 0 0 0 0 0 0 0 0 0 0 0 0 0 0 0 0 0 0 0 0 0 0 0 0 0 0 0 0 0 0 0 0 0 0 0 0 0 0 0 0 0 0 0 0 0 0 0 0 0 0 0 0 0 0 0 0 0 0 0 0 0 0 0 0 0 0 0 0 0 0 0 0 0 0 0 0 0 0 1841 1854 1850 1850 1829 1796 1763 1726 1650 1565 1551 1537 1421 895 729 508 215 177 165 149 138 134 132 130 129 128 130 131 141 146 149 153 157 154 166 196 200 183 179 174 163 154 153 157 153 153 160 154 122 126 164 171 151 161 159 156 154 152 153 153 153 152 153 152 153 148 154 153 153 157 168 172 174 183 228 222 368 511 717 942 1134 1270 1417 1440 1427 1327 1357 1415 1452 1486 1529 1546 1563 1583 1642 1703 1768 1798 1787 1791 1799 1803 1811 1817 1822 1830 1871 1897 1908 1679 1460 1320 1096 912 766 761 766 861 922 878 831 843 906 1001 1171 1260 1366 1746 2005 2100 2215 2203 2145 2070 2057 2063 2088 2091 2014 1976 1967 2011 2097 2179 2248 2322 2343 2373 2397 2329 2156 1887 1855 2000 2367 2599 2930 3207 3244 3259 3197 3156 3107 3420 3469 3514 3766 3840 3976 4424 4641 4891 4198 3655 3286 3000 3451 3717 4117 4465 4831 4993 5024 4916 4522 4148 3829 3640 3616 3875 3799 3738 3706 3974 4157 4196 4250 4318 4442 4862 5224 5810 6017 6056 6103 6276 6366 6556 6881 6948 6925 7114 7359 7222 7304 7385 6580 5743 5141 4659 4588 4633 4670 4915 5198 5623 6397 7033 7617 8548 9220 9809 10337 10538 10802 11158 11287 11290 11274 11240 11168 11002 10800 10663 10353 10166 10107 10272 10206 10436 10622 10575 10447 10482 10503 10382 10457 10475 10389 10451 10366 10124 10068 10277 10441 10681 10727 10672 10577 10606 10426 10175 10077 10138 9993 9553 8902 8398 8823 9039 9570 10052 10287 9565 8887 8767 8761 8677 8542 9007 8777 7899 7199 6761 7049 7499 8015 8289 7954 7354 7590 8061 8542 8427 8919 9416 9822 9885 9887 10662 10972 11005 11005 11619 11999 12335 11212 10957 10998 10684 10462 11020 10575 10589 10500 10483 10202 9932 9352 8912 8444 8084 7885 7666 7329 7322 7227 7064 6864 6651 6405 6352 6287 6277 6302 6331 6660 6896 7317 7745 8125 8396 8667 8786 9101 9325 9339 9202 8837 8752 8752 8767 8681 8584 8421 8141 7961 7661 7460 7286 7176 7147 7296 7732 7952 8062 8151 8294 8542 9142 9607 10076 10832 11277 11642 12245 12803 13334 14045 14502 14865 15252 15710 16208 16167 15683 15390 15062 14930 14800 14645 14610 14603 14415 14315 14205 14265 14379 14590 14907 15105 15299 16150 16654 16808 15904 15378 14965 13922 13715 13653 13165 12310 11854 11723 11845 11755 11570 11955 12598 13208 13602 13918 14378 14602 14655 14445 14085 13845 13842 13710 13365 12929 12723 12460 11919 11488 10443 9157 8532 8041 7445 6999 6680 6440 6257 5772 5031 4433 4017 3871 3788 3800 3758 3673 3778 3797 4316 4787 5381 5747 6037 6607 7040 7392 8060 8450 9006 9600 10084 10575 11222 11874 12395 12755 12670 12550 12400 12559 12683 12992 13182 13499 14114 13784 13323 12912 12768 12730 12762 12650 12910 12752 12142 12427 13179 13652 13824 13790 13714 13574 13204 12942 12645 12125 11764 11420 10768 10415 9967 9492 9199 8887 8430 8047 7557 6920 6321 5944 5489 5216 5052 4843 4730 4593 4576 4678 4813 5541 5902 6347 6757 7157 7726 8534 9211 9592 10139 10380 10432 10600 10780 11094 11515 11685 11717 12160 12478 12715 13035 13289 13544 13754 13840 13863 13824 13854 13812 13905 13933 14052 14235 14368 14555 14865 14800 14960 15110 15270 15153 14713 14163 13814 13995 14269 14462 14469 14564 14677 15269 14997 14243 13225 12535 11970 11470 11493 11802 12220 12782 13380 13934 14357 14753 15333 15582 15857 15324 14700 14102 13473 13094 12692 12189 11799 11415 10887 10245
0 0 0 0 0 0 0 0 0 0 0 0 0 0 0 0 0 0 0 0 0 0 0 0 0 0 0 0 0 0 0 0 0 0 0 0 0 0 0 0 0 0 0 0 0 0 0 0 0 0 0 0 0 0 0 0 0 0 0 0 0 0 0 0 0 0 0 0 0 0 0 0 0 0 0 0 0 0 0 0 0 0 0 0 0 0 0 0 0 0 0 0 0 0 0 0 0 0 0 0 0 0 0 0 0 0 0 0 0 0 0 0 0 0 0 0 0 0 0 0 0 0 0 0 0 0 0 0 0 0 0 0 0 0 0 0 0 0 0 0 0 0 0 0 0 0 0 0 0 0 0 0 0 0 0 0 0 0 0 0 0 0 0 0 1798 1825 1850 1850 1850 1839 1814 1794 1764 1733 1650 1489 1498 1497 1217 957 714 367 212 178 150 146 144 136 133 133 134 133 136 142 146 147 150 152 176 209 254 272 278 221 180 166 157 153 157 158 157 161 157 122 122 122 123 122 142 143 147 152 152 152 152 152 152 152 152 152 152 154 153 152 156 161 168 172 178 187 232 318 591 690 977 1136 1244 1342 1379 1381 1317 1325 1333 1392 1446 1522 1544 1560 1578 1629 1686 1751 1798 1782 1789 1792 1800 1803 1811 1816 1824 1859 1886 1902 1594 1329 1302 1106 884 710 796 761 788 856 830 821 933 979 1052 1162 1267 1439 1913 1998 2104 2290 2268 2157 2058 2030 1966 1946 1959 1961 1958 1947 1933 1970 2020 2130 2246 2323 2389 2471 2386 2076 1871 1871 2075 2397 2646 2906 3339 3309 3308 3214 3134 3116 3424 3484 3547 3917 4146 4133 4356 4635 4923 4670 3901 3326 3013 3471 3755 4202 4559 4866 4987 5018 5043 4638 4144 3838 3613 3597 3911 3674 3725 3762 4121 4177 4212 4262 4349 4539 4945 5301 5680 5954 6085 6273 6295 6322 6681 6921 6950 6941 7382 7405 7236 7096 7166 6437 5524 4913 4647 4668 4731 4742 5047 5391 6018 6606 7107 7688 8447 9096 9587 10083 10339 10633 10995 11251 11281 11069 10968 10965 10985 10914 10748 10347 10106 9960 10110 10068 10365 10532 10424 10342 10394 10397 10227 10271 10238 10223 10132 10060 10093 9825 9988 10265 10424 10447 10364 10384 10276 10069 9705 9448 9510 9463 9113 8644 7889 8163 8768 9426 9836 9965 9264 8752 8083 8151 8014 7841 8677 8711 7876 7149 6624 6836 7217 7539 7799 7440 6980 7121 7640 8059 7832 8480 8772 9021 9124 9740 10167 10230 10181 10340 11088 11427 11544 10815 10318 10017 9782 9461 10041 9877 9897 9907 10059 9571 9316 8837 8431 8042 7734 7495 7255 7029 6961 6932 6675 6505 6340 6222 6174 6199 6277 6325 6542 6982 7427 7927 8360 8762 8904 9236 9296 9600 10017 10155 9685 9055 8944 9107 9237 9327 9324 8964 8690 8440 8027 7746 7567 7336 7162 7179 7476 7709 7879 7992 8085 8300 8816 9247 9747 10415 10890 11254 11677 12255 12848 13640 14107 14583 15155 15533 15972 16625 16320 15900 15442 15307 15129 14988 14994 14929 14813 14707 14643 14674 14750 15009 15270 15502 15658 16220 16868 16455 15530 14762 14424 14002 14150 13980 13465 12970 12370 12277 12423 12147 11830 12028 12555 13338 13837 14105 13990 13912 14039 13902 13570 13268 13148 13023 12868 12182 12170 11845 11084 11343 10723 9476 8535 7930 7269 6767 6545 6240 5985 5639 4933 4423 4023 3918 3851 3833 3788 3788 3813 3763 4003 4398 4938 5247 5599 6109 6515 7036 7487 7641 8281 8879 9275 9637 10349 10924 11510 11855 11969 12265 12617 12890 13212 13443 13544 13864 14333 14218 13987 13343 12922 12830 13097 12738 12870 13257 12800 12687 13225 13655 14008 13975 13915 13570 13143 12782 12449 11825 11450 10947 10438 10026 9615 9120 8767 8502 8106 7632 7220 6722 6557 6267 5607 5282 5098 4903 4796 4700 4526 4615 4782 5212 5764 6176 6627 6967 7481 8362 8994 9372 9820 10273 10402 10474 10637 10835 11273 11530 11557 11923 12273 12514 12775 12969 13230 13385 13430 13487 13418 13487 13443 13510 13585 13699 13862 14147 14288 14508 14520 14695 14875 14982 15124 14934 14587 14225 14624 14922 15040 14989 15048 15074 15574 14919 14169 13124 12457 11917 11524 11669 11924 12419 12948 13497 14104 14683 15049 15490 15760 16050 15605 14829 14065 13365 13049 12628 12190 11928 11570 11019 10397
0 0 0 0 0 0 0 0 0 0 0 0 0 0 0 0 0 0 0 0 0 0 0 0 0 0 0 0 0 0 0 0 0 0 0 0 0 0 0 0 0 0 0 0 0 0 0 0 0 0 0 0 0 0 0 0 0 0 0 0 0 0 0 0 0 0 0 0 0 0 0 0 0 0 0 0 0 0 0 0 0 0 0 0 0 0 0 0 0 0 0 0 0 0 0 0 0 0 0 0 0 0 0 0 0 0 0 0 0 0 0 0 0 0 0 0 0 0 0 0 0 0 0 0 0 0 0 0 0 0 0 0 0 0 0 0 0 0 0 0 0 0 0 0 0 0 0 0 0 0 0 0 0 0 0 0 0 0 0 0 0 0 0 1770 1786 1804 1830 1839 1845 1867 1850 1834 1810 1791 1771 1549 1417 1384 1339 1052 762 485 328 222 159 153 146 141 143 139 140 139 142 140 143 145 150 188 302 315 351 361 363 362 255 155 153 153 153 164 166 163 158 137 122 122 122 122 122 122 142 147 152 152 152 152 152 152 152 152 153 155 157 158 155 162 167 171 177 183 194 231 318 504 934 1066 1170 1243 1273 1281 1311 1346 1348 1304 1400 1517 1543 1558 1575 1611 1652 1713 1776 1779 1782 1788 1794 1796 1805 1810 1818 1841 1844 1634 1367 1236 1247 1037 829 703 862 1163 778 773 781 830 980 1117 1189 1264 1391 1625 2010 2091 2065 2223 2290 2219 2130 2069 2038 1950 1923 1922 1916 1912 1898 1909 1927 1979 2046 2119 2254 2399 2363 2090 1822 1898 2052 2299 2622 2789 3052 3158 3249 3217 3091 3290 3494 3474 3466 3881 4214 4382 4401 4667 4998 5125 4324 3579 2983 3293 3696 4286 4708 4717 4849 5045 5028 4783 4111 3793 3565 3630 3780 3656 3754 4004 4167 4187 4207 4260 4373 4588 4767 4872 5359 5965 6199 6340 6318 6334 6755 6969 6933 6935 7139 6845 6750 6694 6500 5962 5203 4675 4635 4694 4804 5115 5325 5663 6194 6710 7242 7758 8661 9179 9471 9913 10206 10556 10983 11206 11106 10910 10845 10822 10814 10781 10657 10363 10126 9917 9874 9772 10196 10416 10290 10123 10182 10095 9929 9986 9956 9968 9874 10042 10362 9764 9447 9722 9931 9910 9859 10048 9927 9727 9137 8595 8506 8472 8307 8205 7453 7779 8448 9128 9479 9511 8979 8342 7591 7287 7276 7282 7792 7910 7472 6787 6329 6486 6757 6891 6892 6777 6477 6640 6972 7075 7127 7659 7862 8301 8879 9022 9165 9277 9157 9617 10181 10280 10160 10132 9817 9436 8847 8576 9212 8985 9119 8889 9067 8922 8652 8177 7887 7537 7112 6997 6820 6585 6391 6357 6231 6182 6062 6171 6362 6500 6609 6884 7160 7627 8236 8720 9102 9462 9624 9869 9981 10135 10740 10827 9867 9227 9289 9537 9945 10240 10415 9960 9494 9100 8650 8351 8060 7602 7382 7262 7181 7347 7552 7750 7896 8007 8374 8847 9185 9826 10235 10565 11289 11960 12577 13362 13969 14387 14970 15310 15654 16215 16703 16517 16017 15740 15575 15560 15459 15469 15345 15280 15205 15210 15334 15425 15712 15919 16090 16995 16555 16042 15363 14889 14715 14482 14527 14422 13635 13337 13143 12925 12530 12165 12040 12218 12663 13460 13985 14379 14075 13550 13132 13095 12905 12684 12367 12174 12054 11579 11403 11219 10370 9934 9887 9677 9452 8760 7212 6650 6131 6046 5787 5385 4901 4463 4085 3985 3938 3883 3777 3806 3827 3802 3823 4135 4471 4807 5172 5634 6059 6410 6747 6904 7272 7940 8530 8937 9911 10472 11068 11872 12292 12700 13274 13682 13832 14282 14537 14458 14670 14672 14389 13763 13315 13095 13110 12890 13098 13290 13774 13522 13580 13625 13377 13213 13217 13093 12669 12310 11920 11345 10850 10540 9900 9462 9252 9119 8825 8500 8297 8106 7915 7470 6986 6526 5830 5355 5156 4956 4823 4721 4530 4592 4723 4947 5456 5890 6442 6701 7160 7967 8471 8887 9315 9797 10216 10325 10408 10607 10919 11175 11290 11622 11968 12253 12545 12670 12815 12875 12914 12903 12892 12932 12904 13030 13155 13294 13375 13597 13770 13945 14112 14270 14385 14577 14734 14382 14590 15000 15592 15888 15955 15920 16027 15975 15630 14972 14119 13204 12470 11970 11670 11820 12115 12645 13145 13629 14203 14725 15182 15660 15960 16280 15350 14754 14015 13302 12914 12624 12350 11995 11742 11175 10787
0 0 0 0 0 0 0 0 0 0 0 0 0 0 0 0 0 0 0 0 0 0 0 0 0 0 0 0 0 0 0 0 0 0 0 0 0 0 0 0 0 0 0 0 0 0 0 0 0 0 0 0 0 0 0 0 0 0 0 0 0 0 0 0 0 0 0 0 0 0 0 0 0 0 0 0 0 0 0 0 0 0 0 0 0 0 0 0 0 0 0 0 0 0 0 0 0 0 0 0 0 0 0 0 0 0 0 0 0 0 0 0 0 0 0 0 0 0 0 0 0 0 0 0 0 0 0 0 0 0 0 0 0 0 0 0 0 0 0 0 0 0 0 0 0 0 0 0 0 0 0 0 0 0 0 0 0 0 0 0 0 0 1732 1762 1777 1795 1820 1837 1853 1869 1871 1855 1834 1814 1801 1740 1525 1378 1175 995 757 508 398 257 203 160 149 147 144 146 146 143 145 141 144 144 148 188 335 409 424 431 426 409 374 177 160 153 156 166 169 167 161 155 126 123 122 122 122 122 127 139 142 150 152 152 152 152 153 154 156 157 159 160 160 162 167 171 178 183 179 202 254 393 772 981 1081 1175 1221 1248 1310 1351 1359 1266 1366 1505 1542 1555 1572 1601 1632 1679 1761 1774 1778 1786 1790 1789 1795 1800 1800 1786 1586 1276 1094 1132 1147 990 739 698 901 1225 1247 761 771 915 1090 1124 1280 1484 1691 1876 2030 2132 2144 2215 2323 2292 2254 2224 2180 2106 1985 1929 1912 1895 1876 1867 1864 1900 1950 2040 2195 2361 2388 2084 1796 1839 2124 2412 2674 2743 2876 2974 3050 3109 3045 3098 3227 3434 3486 3817 4165 4366 4433 4622 4974 4951 4325 3714 2990 3331 3661 4141 4450 4537 4926 4983 4910 4694 4154 3694 3566 3595 3618 3721 3825 4087 4155 4170 4143 4237 4345 4504 4622 4903 5514 5988 6238 6344 6298 6359 6780 6978 6922 6889 6573 6236 6111 5970 5809 5518 4764 4569 4609 4670 4746 5165 5632 5950 6365 6878 7236 7727 8685 9165 9475 9798 10114 10452 10934 11151 10976 10865 10811 10760 10742 10670 10549 10323 10173 9984 9784 9612 10057 10286 10163 9941 9924 9901 9773 9868 9724 9723 9941 10233 10430 9810 8971 9090 9396 9371 9335 9562 9629 9483 8778 8367 7817 7759 7660 7600 7142 7585 8151 8831 9162 9012 8678 8319 7565 7042 7129 7187 7279 7292 7242 6699 6256 6202 6404 6330 6297 6257 6087 6191 6482 6449 6735 6967 7139 7826 8036 8216 8371 8720 8637 8984 9514 9616 9142 9306 9237 8927 8397 8336 8815 8572 8564 8562 8457 8357 8134 7719 7404 7132 6800 6584 6506 6327 6181 6034 5987 5919 5907 6201 6541 6786 6985 7206 7530 8212 8845 9250 9501 9871 10269 10502 10595 10810 11265 10907 9997 9427 9602 9956 10445 10920 11083 10417 9974 9511 9077 8759 8427 8022 7667 7489 7290 7247 7360 7607 7791 7902 8147 8482 8855 9242 9664 10240 11239 11883 12503 13240 13715 14167 14848 15265 15605 16073 16599 16830 16552 16180 15935 15923 15805 15849 15719 15580 15542 15515 15628 15775 16053 16317 16444 17080 16509 16205 15729 15265 15263 14894 14175 13892 13467 13263 13065 12760 12425 12385 12500 12463 12728 13484 13984 14522 14324 13720 13100 12655 12505 12270 11800 11560 11423 11034 10830 10599 10099 9632 8832 8562 8435 8255 7701 6911 6199 5832 5707 5312 4633 4136 4143 4101 3995 3912 3790 3803 3848 3887 3910 3933 4358 4586 4902 5380 5685 5897 6375 6924 7411 8304 9032 9856 10560 10913 11354 11973 12448 12839 13335 13750 14063 14643 15135 15327 15215 14994 14695 14045 13669 13363 13455 13188 13155 13205 13694 13920 13427 13122 12912 12820 12762 12600 12215 11970 11704 11219 10877 10605 10126 9714 9885 9537 9184 8895 8690 8530 8185 7677 7225 6715 6002 5477 5195 4988 4841 4707 4545 4593 4693 4893 5157 5687 6231 6544 6999 7564 8011 8437 9125 9506 9987 10169 10308 10495 10685 10885 11092 11332 11705 11970 12415 12578 12520 12524 12523 12528 12508 12570 12557 12633 12840 12968 12990 13135 13265 13465 13757 13854 13992 14237 14309 14405 14363 14560 15118 15590 16052 16564 16717 16350 15552 14799 14150 13187 12452 11985 11789 11940 12337 12863 13287 13699 14177 14615 15038 15655 15965 15995 15135 14383 13780 13149 12767 12585 12295 12047 11753 11338 11044
0 0 0 0 0 0 0 0 0 0 0 0 0 0 0 0 0 0 0 0 0 0 0 0 0 0 0 0 0 0 0 0 0 0 0 0 0 0 0 0 0 0 0 0 0 0 0 0 0 0 0 0 0 0 0 0 0 0 0 0 0 0 0 0 0 0 0 0 0 0 0 0 0 0 0 0 0 0 0 0 0 0 0 0 0 0 0 0 0 0 0 0 0 0 0 0 0 0 0 0 0 0 0 0 0 0 0 0 0 0 0 0 0 0 0 0 0 0 0 0 0 0 0 0 0 0 0 0 0 0 0 0 0 0 0 0 0 0 0 0 0 0 0 0 0 0 0 0 0 0 0 0 0 0 0 0 0 0 0 0 0 1665 1710 1752 1768 1784 1806 1832 1862 1860 1873 1871 1854 1835 1831 1808 1670 1480 1130 860 836 574 432 288 218 176 152 148 147 152 152 148 147 143 145 144 144 181 318 464 527 583 614 523 449 282 178 169 165 167 169 167 164 157 145 137 134 132 142 122 125 132 137 143 150 151 152 152 153 156 157 159 159 158 160 163 167 173 179 183 178 181 229 311 654 839 976 1081 1140 1238 1290 1313 1309 1244 1328 1481 1540 1554 1568 1592 1616 1643 1726 1770 1775 1782 1785 1785 1792 1793 1777 1443 1272 997 845 1001 1030 894 716 697 1060 1223 1278 1227 1299 1319 1255 1307 1362 1747 1921 2034 2065 2147 2210 2218 2241 2274 2380 2360 2324 2239 2153 2014 1937 1913 1874 1839 1830 1857 1873 2041 2216 2384 2144 1850 1839 2061 2199 2470 2719 2806 2886 2915 2966 2975 3047 3115 3149 3395 3579 3677 4071 4271 4403 4605 4995 4904 4213 3706 2947 3283 3654 4057 4310 4454 4751 5039 4882 4480 4018 3666 3557 3582 3621 3705 3907 4044 4112 4131 4114 4167 4281 4404 4497 4930 5483 5910 6212 6357 6234 6427 6771 7074 6904 6801 6072 5764 5523 5298 5181 4847 4512 4489 4545 4625 4722 5094 5512 5912 6338 6890 7267 7712 8609 8989 9390 9792 10165 10522 10939 11059 10973 10827 10763 10747 10599 10523 10464 10297 10184 10032 9785 9529 9854 10070 9968 9779 9688 9625 9539 9542 9484 9796 10088 10378 10417 9789 8921 8262 8788 8818 8798 9068 9122 8985 8689 8042 7428 7228 7187 7081 6810 7340 7801 8519 8743 8614 8264 7962 7478 6767 6795 6886 7011 7015 6900 6661 6242 5777 5980 5822 5745 5655 5561 5592 5856 5972 6152 6277 6856 7135 7254 7474 7706 8082 8082 8507 8882 9071 8512 8640 8527 8215 7796 8202 8415 8146 8135 8157 7851 7806 7594 7250 7001 6774 6556 6437 6282 6117 5992 5737 5756 5905 6009 6160 6566 6837 7159 7527 7964 8720 9325 9725 9982 10579 11089 11223 11305 11528 11767 10815 10092 9727 9920 10219 10903 11378 11648 10890 10300 9851 9531 9217 9187 8755 8302 7842 7457 7336 7297 7561 7764 7862 8082 8349 8657 9079 9649 10192 11112 11790 12185 12850 13305 13709 14355 14833 15329 15690 16230 16600 17159 16934 16340 16282 16280 16195 16110 16225 16052 15988 15965 16097 16554 16668 16834 16570 16243 15984 15659 15590 15415 14985 14314 13645 13378 13230 12982 12587 12657 12805 12692 12768 13020 13567 14048 14755 14454 13732 13190 12640 12432 12099 11444 11164 10969 10750 10543 10315 9561 9105 8485 7551 7422 7397 7452 6917 6171 5576 5604 5209 4456 4347 4425 4211 4053 3916 3843 3787 3888 3918 3918 3876 4317 4545 4758 5063 5280 5807 6357 6964 7559 8482 9606 10379 10757 11073 11365 11895 12313 12668 13150 13519 13865 14480 14865 15175 15675 15555 15183 14580 14129 13799 13635 13495 13105 13180 13359 13225 12942 12720 12568 12528 12460 12299 11959 11695 11545 11280 10997 10735 10242 10260 10186 9877 9534 9207 8851 8680 8379 7837 7376 6859 6119 5639 5231 5010 4862 4743 4545 4552 4621 4863 5113 5479 5997 6382 6774 7224 7426 8070 8954 9287 9737 10112 10234 10393 10567 10669 10808 11069 11370 11749 12113 12362 12380 12299 12239 12203 12182 12225 12250 12343 12443 12583 12602 12770 12927 13040 13299 13525 13699 13890 14074 14309 14278 14298 14702 15112 15558 16137 16418 16119 15565 14755 14122 13148 12544 12070 11960 12222 12497 13038 13479 13805 14215 14533 14975 15550 15879 15590 14994 14385 13847 13157 12750 12545 12192 12025 11697 11452 11180
0 0 0 0 0 0 0 0 0 0 0 0 0 0 0 0 0 0 0 0 0 0 0 0 0 0 0 0 0 0 0 0 0 0 0 0 0 0 0 0 0 0 0 0 0 0 0 0 0 0 0 0 0 0 0 0 0 0 0 0 0 0 0 0 0 0 0 0 0 0 0 0 0 0 0 0 0 0 0 0 0 0 0 0 0 0 0 0 0 0 0 0 0 0 0 0 0 0 0 0 0 0 0 0 0 0 0 0 0 0 0 0 0 0 0 0 0 0 0 0 0 0 0 0 0 0 0 0 0 0 0 0 0 0 0 0 0 0 0 0 0 0 0 0 0 0 0 0 0 0 0 0 0 0 0 0 0 0 0 0 1763 1711 1685 1722 1753 1767 1788 1809 1845 1860 1880 1893 1885 1874 1873 1857 1783 1618 1333 931 805 710 455 437 232 189 152 151 152 152 148 147 147 147 150 146 149 155 295 517 600 675 816 753 607 441 280 181 177 175 174 173 170 167 160 157 151 152 152 133 122 122 153 153 152 152 145 147 152 153 154 154 155 156 158 163 167 172 177 177 174 179 191 243 485 623 766 920 1032 1189 1227 1227 1211 1155 1286 1452 1542 1563 1567 1580 1600 1619 1670 1737 1771 1776 1779 1776 1782 1792 1495 1188 897 728 661 668 730 716 692 682 1095 1242 1280 1553 1737 1726 1606 1561 1659 1667 1895 2083 2173 2202 2252 2240 2239 2268 2322 2461 2437 2356 2299 2212 2078 2044 2005 1904 1881 1852 1801 1995 2189 1949 1815 1809 2062 2244 2391 2571 2731 2865 3108 3094 3033 3013 3158 3239 3373 3431 3651 3712 3943 4103 4313 4596 4972 5036 4215 3539 2943 3217 3622 3994 4294 4565 4880 4844 4759 4292 3782 3611 3558 3719 3740 3749 3723 3908 4022 4043 4065 4129 4191 4270 4453 4874 5089 5524 5989 6125 6297 6699 6906 6916 6799 6385 5596 5267 4895 4616 4542 4359 4348 4418 4521 4673 4846 4932 5595 6227 6594 7071 7299 7827 8652 8999 9341 9632 9956 10315 10543 10719 10888 10771 10652 10604 10630 10538 10441 10270 10125 9865 9650 9451 9608 9709 9656 9456 9153 9081 8943 9267 9768 9872 9805 9786 9844 9393 8664 8036 7886 8099 8223 8559 8601 8305 8357 8197 7597 6852 6662 6578 6594 7013 7460 8013 8032 7904 7575 7378 7193 6607 6292 6384 6537 6522 6422 6151 5862 5470 5391 5274 5211 5235 5221 5212 5257 5394 5511 6126 6352 6447 6607 6592 6882 7186 7352 7751 8146 8032 7601 7599 7617 7357 7226 7512 7617 7507 7314 7387 7307 7132 6954 6681 6512 6471 6335 6195 6000 5824 5652 5712 6107 6257 6394 6490 6446 6805 7315 7754 8299 9077 9577 10242 10914 11358 11949 11738 11900 12279 11872 10875 10197 10147 10315 10685 11424 11845 12215 11472 10745 10141 9997 9812 9720 9366 8899 8431 7870 7587 7436 7534 7776 7859 8007 8202 8385 8781 9294 9920 10697 11265 11723 12170 12522 12925 13532 14130 14547 15079 15545 16129 16707 17149 17509 17313 17092 16910 16850 16844 16520 16162 16047 16168 16218 16317 16210 16057 15788 15414 15218 15199 15317 15165 14725 14032 13364 13174 13169 13285 13058 13052 13220 13422 13684 14208 14507 15087 14632 14175 13755 13359 12850 12304 12054 11712 11389 11080 10804 10478 9844 9320 8965 8410 7881 7115 6414 6377 5922 5229 5226 4797 4818 4852 4696 4563 4412 4253 3993 3945 3910 3897 3912 3921 4213 4398 4677 5018 5299 5622 6142 6735 7255 8164 9100 10414 10700 10994 11250 11688 12020 12370 12878 13198 13503 14070 14415 14707 15090 15540 15883 14907 14193 13653 13640 13562 13235 13195 13023 12975 12727 12400 12292 12249 12158 12030 11854 11489 11310 11240 10889 10758 10792 10698 10493 10056 9754 9460 9022 8829 8637 8059 7606 7037 6319 5784 5307 5020 4885 4798 4698 4657 4590 4828 5028 5225 5804 6135 6367 6935 7334 7750 8605 9044 9587 10052 10147 10253 10412 10499 10624 10823 11010 11259 11570 11819 11960 11980 11845 11799 11835 11898 11840 11799 11967 12088 12165 12272 12335 12530 12670 12953 13270 13508 13777 13958 13777 13809 14229 14588 14925 15317 15620 15780 15297 14670 13962 13140 12609 12179 12345 12539 12899 13282 13715 14015 14607 14975 15224 15557 15800 15307 14659 14338 14039 13633 13263 13013 12283 11950 11674 11430 11295
0 0 0 0 0 0 0 0 0 0 0 0 0 0 0 0 0 0 0 0 0 0 0 0 0 0 0 0 0 0 0 0 0 0 0 0 0 0 0 0 0 0 0 0 0 0 0 0 0 0 0 0 0 0 0 0 0 0 0 0 0 0 0 0 0 0 0 0 0 0 0 0 0 0 0 0 0 0 0 0 0 0 0 0 0 0 0 0 0 0 0 0 0 0 0 0 0 0 0 0 0 0 0 0 0 0 0 0 0 0 0 0 0 0 0 0 0 0 0 0 0 0 0 0 0 0 0 0 0 0 0 0 0 0 0 0 0 0 0 0 0 0 0 0 0 0 0 0 0 0 0 0 0 0 0 0 0 0 0 0 1773 1741 1699 1696 1730 1752 1769 1795 1830 1854 1868 1889 1902 1893 1892 1890 1848 1718 1416 1085 844 585 613 605 348 220 170 151 152 152 149 147 147 147 150 149 152 160 270 534 617 689 879 893 788 577 420 300 181 178 177 175 177 177 176 176 156 158 160 144 122 122 122 158 162 153 132 139 146 151 152 152 152 155 158 161 166 168 172 175 176 179 187 235 355 471 586 786 941 1053 1114 1121 1098 1101 1225 1395 1558 1581 1595 1600 1603 1605 1632 1676 1721 1770 1773 1762 1769 1652 1192 922 717 687 654 672 684 687 678 661 947 1217 1387 1651 1796 1917 1825 1697 1803 1683 1841 2032 2118 2151 2174 2214 2252 2288 2342 2388 2497 2504 2434 2353 2218 2177 2121 2012 1994 1968 1768 1888 1935 1779 1789 1889 2122 2301 2422 2595 2709 2948 3201 3211 3183 3127 3196 3318 3487 3584 3678 3881 3992 4163 4364 4568 4879 4902 4121 3429 2919 3286 3601 3945 4291 4627 4958 4784 4773 4154 3638 3598 3647 3731 3757 3782 3804 3911 3920 4005 4046 4103 4150 4245 4389 4674 4834 5268 5651 5922 6553 6770 6805 6696 6542 6078 5310 4873 4580 4380 4311 4300 4345 4395 4520 4643 5074 5460 5435 5869 6461 7261 7670 8133 8634 8982 9235 9494 9692 9899 10216 10538 10893 10967 10731 10608 10515 10521 10434 10178 10095 9958 9741 9412 9380 9520 9503 9198 8921 8487 8743 9420 9557 9430 9341 9313 9304 9003 8444 7964 7215 7574 7795 8179 7964 7724 7707 7773 7415 6759 6403 6325 6326 6834 7222 7475 7449 7269 7021 6870 6701 6351 6092 5964 6051 6019 5902 5667 5527 5401 5254 5047 4886 4898 4977 4950 5008 4995 5023 5526 5717 5859 5997 6146 6417 6586 6832 6960 7377 7202 6864 6912 7000 6921 6734 6930 6986 7004 6915 6891 6850 6596 6549 6426 6337 6269 6115 5879 5636 5460 5704 5930 6321 6550 6750 6859 6862 7071 7462 7769 8336 9066 9496 10057 10900 11640 12325 12112 12528 12669 11698 10830 10232 10197 10357 10828 11568 11909 12239 11730 11034 10300 10365 10221 10042 9712 9207 8816 8317 7934 7702 7547 7775 7864 7961 8075 8232 8667 9147 9646 10237 10729 11179 11680 12019 12439 12880 13445 13913 14435 15129 15613 16187 16757 17480 17945 17707 17580 17075 16708 16172 15730 15730 15730 15858 15865 16089 15993 15615 15200 14732 14854 15005 15130 14805 14334 13947 13913 13700 13475 13318 13339 13699 14020 14204 14609 14980 15090 14419 14285 14018 13620 13350 13010 12515 12259 12070 11590 11215 10789 10362 9992 9612 9055 8377 7632 6750 5980 5636 5031 5012 4573 5165 5121 4966 4852 4731 4527 4263 4047 3977 3876 3913 3942 4062 4318 4525 4855 5103 5400 5974 6494 7017 7849 8597 10162 10419 10710 11123 11523 11835 12174 12580 12950 13353 13748 13960 14270 14587 15063 15490 14690 14070 13687 13830 13877 13458 13252 13040 13004 12820 12423 12183 12110 12045 11988 11759 11610 11330 11195 11148 11194 10984 10777 10550 10107 9831 9512 9096 8870 8600 8184 7751 7221 6400 5812 5409 5027 4882 4802 4702 4632 4693 4916 5076 5239 5591 5961 6307 6876 7285 7685 8552 9047 9599 10010 10079 10152 10280 10374 10483 10643 10735 10877 11095 11290 11457 11610 11372 11320 11387 11339 11373 11260 11450 11775 11955 12015 12055 12258 12338 12589 13037 13300 13443 13645 13585 13555 13903 14254 14525 14894 15215 15420 15197 14573 13930 13154 12634 12364 12650 12899 13234 13629 13859 14260 14943 15325 15455 15660 15775 15240 14385 14342 14430 13897 13715 13304 12540 11977 11689 11590 11457
0 0 0 0 0 0 0 0 0 0 0 0 0 0 0 0 0 0 0 0 0 0 0 0 0 0 0 0 0 0 0 0 0 0 0 0 0 0 0 0 0 0 0 0 0 0 0 0 0 0 0 0 0 0 0 0 0 0 0 0 0 0 0 0 0 0 0 0 0 0 0 0 0 0 0 0 0 0 0 0 0 0 0 0 0 0 0 0 0 0 0 0 0 0 0 0 0 0 0 0 0 0 0 0 0 0 0 0 0 0 0 0 0 0 0 0 0 0 0 0 0 0 0 0 0 0 0 0 0 0 0 0 0 0 0 0 0 0 0 0 0 0 0 0 0 0 0 0 0 0 0 0 0 0 0 0 0 0 0 0 1782 1762 1723 1688 1699 1724 1744 1775 1816 1833 1861 1888 1912 1910 1910 1908 1876 1830 1598 1339 1133 963 729 522 379 212 175 153 152 150 149 149 150 149 150 149 151 163 283 499 617 694 821 930 952 809 572 410 263 189 181 179 182 191 226 234 181 174 174 170 156 133 122 122 122 122 127 152 152 156 146 152 156 157 159 161 165 166 171 174 180 193 212 266 353 426 536 723 865 956 999 1000 991 1099 1244 1467 1634 1682 1687 1656 1629 1596 1582 1615 1657 1722 1731 1584 1623 1282 990 709 687 675 652 657 664 670 663 670 1100 1348 1488 1629 1781 1942 1994 1885 1889 1821 1850 1928 1960 2015 2084 2185 2282 2338 2387 2433 2602 2671 2535 2438 2335 2277 2207 2088 2053 2029 1799 1803 1797 1768 1812 1958 2169 2360 2463 2572 2726 2863 3096 3190 3219 3192 3222 3402 3542 3587 3707 3827 4005 4084 4336 4389 4565 4515 3909 3244 2982 3283 3568 3971 4391 4503 4568 4828 4772 3915 3591 3526 3684 3725 3763 3835 3931 4020 4000 3998 4024 4081 4115 4175 4350 4588 4729 4996 5345 5784 6228 6449 6536 6446 6262 5606 4949 4524 4367 4267 4238 4285 4319 4359 4465 4921 5358 5942 5854 6247 6924 7493 7904 8341 8721 8823 8962 9235 9436 9638 10006 10337 10633 10806 10792 10652 10338 10419 10393 10137 9859 9767 9482 9272 9341 9614 9296 8971 8419 8300 8790 9105 8913 8830 8720 8681 8696 8661 8230 7743 6880 7072 7418 7756 7472 7243 7244 7415 7223 6721 6293 6028 6106 6502 6832 6990 6796 6626 6422 6307 6218 5980 5757 5587 5545 5522 5442 5346 5287 5230 5126 4925 4775 4733 4753 4765 4791 4833 4785 4895 5083 5219 5420 5672 5776 6070 6222 6306 6650 6499 6182 6364 6534 6524 6281 6501 6517 6494 6501 6397 6397 6166 6241 6156 6041 5942 5677 5416 5417 5747 5890 6092 6630 6917 7126 7252 7180 7254 7539 7827 8351 9001 9427 9942 10873 11684 12138 12835 12885 12405 11439 10819 10230 10207 10467 10950 11635 11955 12283 11822 11289 10767 10724 10585 10398 10077 9764 9309 8646 8331 8077 7732 7747 7862 7982 8046 8206 8532 8852 9267 9832 10202 10605 11107 11505 11847 12348 12695 13204 13900 14424 14924 15780 16450 17070 17650 17674 17328 16910 16505 15904 15730 15730 15730 15730 15955 16094 15888 15625 15127 14639 14498 14715 14813 14874 14767 14534 14189 13810 13654 13655 13895 14250 14499 14730 15117 15322 14702 13750 13638 13424 12994 13152 13283 12354 12264 12255 12097 11662 10910 10498 10330 9880 9222 8612 7884 7054 6405 5704 5102 4702 4873 5282 5379 5364 5270 5106 4833 4506 4275 4053 3936 3913 3945 3997 4183 4428 4720 4960 5241 5757 6264 6787 7442 8171 9362 9644 10475 10973 11348 11640 11907 12389 12763 13127 13467 13587 13745 14170 14652 15098 14670 14235 14118 14175 14235 13728 13480 13203 13113 12870 12590 12300 12168 12110 12042 12029 11937 11683 11654 11560 11400 11044 10774 10535 10110 9862 9512 9106 8822 8551 8070 7761 7287 6519 6057 5582 5102 4907 4791 4668 4608 4803 4978 5067 5177 5429 5851 6186 6814 7271 7607 8422 8979 9592 9949 10000 10047 10116 10210 10387 10474 10484 10522 10645 10785 10870 10910 10790 10719 10895 10877 10962 10868 10943 11269 11764 11857 11935 12010 12074 12180 12770 13035 13135 13325 13428 13447 13713 13945 14145 14447 14705 15100 15245 14665 14055 13289 12770 12800 13085 13269 13552 13880 14035 14363 14920 15322 15520 15769 15804 15517 14850 14565 14715 14617 14085 13530 12640 12043 11669 11595 11715
0 0 0 0 0 0 0 0 0 0 0 0 0 0 0 0 0 0 0 0 0 0 0 0 0 0 0 0 0 0 0 0 0 0 0 0 0 0 0 0 0 0 0 0 0 0 0 0 0 0 0 0 0 0 0 0 0 0 0 0 0 0 0 0 0 0 0 0 0 0 0 0 0 0 0 0 0 0 0 0 0 0 0 0 0 0 0 0 0 0 0 0 0 0 0 0 0 0 0 0 0 0 0 0 0 0 0 0 0 0 0 0 0 0 0 0 0 0 0 0 0 0 0 0 0 0 0 0 0 0 0 0 0 0 0 0 0 0 0 0 0 0 0 0 0 0 0 0 0 0 0 0 0 0 0 0 0 0 0 0 1785 1781 1756 1696 1688 1693 1712 1745 1803 1836 1866 1895 1919 1934 1939 1921 1887 1862 1562 1196 1004 988 966 846 569 267 181 165 152 151 149 149 149 151 153 153 156 170 218 416 581 713 809 860 951 990 856 572 430 342 269 184 317 381 592 594 460 379 369 334 285 269 219 138 131 153 148 146 148 152 158 152 156 156 158 158 160 163 170 175 179 200 244 316 373 450 544 625 712 825 902 912 966 1134 1318 1549 1735 1787 1780 1750 1710 1657 1569 1530 1615 1610 1574 1157 1319 1265 789 671 646 644 648 647 648 648 804 1043 1231 1479 1588 1689 1766 1905 2154 2063 2025 1977 1972 1988 2079 2095 2124 2210 2309 2371 2475 2511 2635 2807 2646 2573 2480 2367 2274 2133 2071 2014 1768 1768 1768 1798 1867 2055 2337 2415 2550 2670 2550 2725 3055 3133 3127 3124 3265 3343 3527 3666 3744 3945 4048 4169 4322 4440 4558 4069 3306 2889 3174 3334 3531 3724 3882 4126 4564 4810 4589 3710 3557 3530 3671 3713 3757 3894 4076 4205 4264 4172 4140 4072 4097 4122 4275 4440 4633 4900 5283 5856 5952 6133 6141 5968 5750 5082 4441 4261 4152 4132 4161 4258 4312 4365 4696 5376 5800 6217 6398 6602 6922 7728 8047 8174 8319 8553 8697 8924 9129 9421 9693 9902 10011 10224 10226 10210 10016 10154 10212 9869 9443 9277 9183 9411 9512 9103 8728 8474 7845 8032 8560 8446 8183 7942 7785 7770 7896 8041 7785 7275 6591 6435 6839 7193 7110 6641 6571 6902 6875 6642 6094 5786 5720 5908 6172 6174 5989 5892 5697 5572 5525 5362 5281 5216 5135 4993 4926 4813 4870 4872 4832 4798 4763 4657 4667 4662 4670 4663 4623 4623 4650 4718 4816 4965 5222 5226 5381 5664 5811 5760 5477 5657 5795 5820 5724 5775 5705 5689 5822 5815 5767 5746 5567 5472 5402 5277 5174 5384 5680 6082 6489 6845 7372 7585 7650 7824 7647 7562 7546 7810 8207 8800 9282 9872 10894 11380 11830 12520 12777 12215 11640 11325 10900 10604 10823 11252 11608 11919 12380 12238 11714 11482 11302 11184 10972 10790 10415 9992 9384 9089 8632 8112 7882 7840 8192 8465 8505 8580 8802 8962 9311 9674 9879 10319 10653 11112 11550 11884 12464 13299 13848 14690 15500 15938 16295 16682 16937 17384 17117 16662 16070 15730 15735 15830 15785 16004 16132 15673 15413 15200 14738 14414 14277 14205 14488 15180 14790 14775 14560 14522 14508 14667 14905 15062 15440 15607 14929 14240 13249 12732 12540 11900 12070 12370 11560 10940 11067 11200 10693 9896 9567 9614 9592 8946 8452 7830 7030 6395 5686 4936 4823 5113 5411 5517 5652 5736 5592 5292 4868 4586 4413 4126 3933 3951 3996 4248 4701 5194 5237 5046 5470 5967 6465 6999 7542 8271 9500 10224 10707 11043 11285 11677 12073 12360 12582 12853 13015 13412 13989 14423 14755 15055 14754 14505 14358 14143 13982 13814 13600 13372 13359 13142 12802 12572 12483 12429 12519 12378 12173 11973 11655 11382 11022 10703 10419 10086 9831 9470 9060 8787 8451 8067 7752 7450 6826 6212 5712 5155 4906 4768 4607 4643 4787 4952 5028 5098 5364 5672 6077 6682 7135 7589 8302 8909 9509 9847 9864 9902 10017 9972 9870 10010 9987 10007 10062 10099 10167 10182 10192 10212 10295 10428 10595 10758 10808 10927 11139 11345 11525 11665 11712 11798 12309 12600 12788 13033 13203 13262 13438 13565 13717 13962 14229 14477 14872 14983 14363 13675 13442 13374 13702 13915 14038 14390 14580 14682 14970 15227 15493 16013 16295 16087 15800 15303 15494 14860 14023 13257 12425 11992 11593 11440 11615
0 0 0 0 0 0 0 0 0 0 0 0 0 0 0 0 0 0 0 0 0 0 0 0 0 0 0 0 0 0 0 0 0 0 0 0 0 0 0 0 0 0 0 0 0 0 0 0 0 0 0 0 0 0 0 0 0 0 0 0 0 0 0 0 0 0 0 0 0 0 0 0 0 0 0 0 0 0 0 0 0 0 0 0 0 0 0 0 0 0 0 0 0 0 0 0 0 0 0 0 0 0 0 0 0 0 0 0 0 0 0 0 0 0 0 0 0 0 0 0 0 0 0 0 0 0 0 0 0 0 0 0 0 0 0 0 0 0 0 0 0 0 0 0 0 0 0 0 0 0 0 0 0 0 0 0 0 0 0 0 1780 1786 1769 1710 1688 1688 1716 1772 1817 1846 1872 1898 1924 1946 1956 1934 1911 1897 1685 1521 1361 1332 1196 990 620 321 260 189 158 153 151 151 151 151 152 157 168 192 262 375 500 656 835 905 929 1020 977 790 575 420 376 220 229 411 596 741 772 682 628 574 485 422 294 175 167 158 152 150 151 153 150 156 154 157 158 155 160 179 171 172 177 201 286 361 397 429 523 636 692 763 844 896 960 1139 1337 1536 1753 1788 1789 1780 1734 1720 1632 1505 1519 1357 1049 870 856 787 660 597 622 651 817 796 739 987 1036 1195 1346 1500 1608 1712 1784 1890 2175 2206 2156 2073 2063 2019 2056 2105 2157 2264 2317 2390 2503 2553 2693 2886 2768 2640 2529 2381 2264 2147 2078 1951 1768 1768 1768 1860 2015 2212 2425 2372 2628 2810 2721 2690 3060 3138 2853 2970 3255 3395 3532 3646 3836 3907 4007 4221 4493 4635 4670 3918 3143 2879 3177 3338 3428 3565 3744 4124 4555 4888 4723 3778 3597 3523 3668 3679 3716 3993 4225 4273 4191 4144 4125 4067 4084 4107 4170 4369 4543 4832 5207 5785 5916 5895 5805 5520 5103 4585 4286 4129 4098 4122 4178 4224 4360 4627 5059 5682 6035 6426 6781 6879 7384 7528 7652 7796 8050 8306 8519 8669 8973 9296 9368 9440 9607 9668 9685 9740 9699 9701 9787 9566 9154 9116 9286 9419 8938 8444 8108 7909 7472 7812 8309 8147 7669 7314 7097 7098 7343 7536 7460 6997 6338 6062 6331 6778 6751 6374 6182 6474 6480 6212 5944 5674 5502 5568 5640 5632 5600 5475 5291 5150 5089 4998 4905 4892 4878 4738 4697 4701 4728 4766 4736 4723 4673 4623 4633 4625 4641 4623 4623 4623 4623 4623 4661 4726 4798 4756 4888 5132 5207 5227 5031 5107 5214 5271 5366 5322 5279 5327 5416 5447 5387 5337 5297 5145 5038 5090 5446 5639 5929 6455 7030 7392 8114 8261 8196 8322 8154 7925 7804 7959 8407 9012 9436 9814 10475 11153 11594 12177 12688 12590 12060 11852 11507 11445 11538 11714 11932 12180 12588 12844 12209 11855 11705 11593 11359 11178 10903 10490 9942 9465 9035 8406 8122 7930 8140 8660 8942 8871 8930 9007 9172 9377 9542 9919 10219 10568 11033 11718 12150 12960 13533 14285 14913 15359 15645 16045 16373 16735 17223 16948 16535 15842 15728 15762 15972 15879 15714 15362 15090 14872 14545 14177 13840 13733 14017 14600 15214 15598 15657 15350 15205 15409 15655 15868 16020 15535 14807 14162 13290 12595 11839 11178 11205 11498 11485 10349 10174 10423 9976 9461 8824 9199 9107 8411 7932 7266 6262 5652 5122 4978 5107 5235 5704 5851 5952 6052 5927 5701 5172 4868 4747 4392 3986 3960 4000 4023 4470 5612 5897 5246 5325 5729 6166 6767 7200 8031 9270 9972 10489 10807 11120 11294 11707 11960 12207 12452 12859 13279 13767 14143 14435 14805 15029 15150 14947 14707 14192 13887 13694 13755 13767 13503 13268 12995 12925 13030 12799 12555 12257 11850 11484 11280 10818 10515 10263 9951 9767 9452 9029 8687 8387 8034 7732 7417 6902 6362 5829 5209 4905 4730 4618 4603 4680 4913 4978 5055 5282 5570 5986 6499 7022 7510 8137 8791 9352 9702 9767 9824 9804 9641 9555 9624 9612 9587 9710 9874 10001 10205 10397 10525 10702 10832 11027 11153 11093 11169 11365 11522 11639 11677 11724 11825 12044 12357 12565 12842 13032 13083 13203 13319 13479 13722 13904 14175 14472 14790 14740 14175 14075 14062 14365 14454 14535 14853 14749 14724 15138 15429 15588 15875 16400 16595 16114 15892 15668 14938 14175 13435 12523 12027 11558 11295 11415
0 0 0 0 0 0 0 0 0 0 0 0 0 0 0 0 0 0 0 0 0 0 0 0 0 0 0 0 0 0 0 0 0 0 0 0 0 0 0 0 0 0 0 0 0 0 0 0 0 0 0 0 0 0 0 0 0 0 0 0 0 0 0 0 0 0 0 0 0 0 0 0 0 0 0 0 0 0 0 0 0 0 0 0 0 0 0 0 0 0 0 0 0 0 0 0 0 0 0 0 0 0 0 0 0 0 0 0 0 0 0 0 0 0 0 0 0 0 0 0 0 0 0 0 0 0 0 0 0 0 0 0 0 0 0 0 0 0 0 0 0 0 0 0 0 0 0 0 0 0 0 0 0 0 0 0 0 0 0 0 1764 1782 1782 1739 1688 1688 1739 1786 1828 1860 1873 1894 1920 1946 1948 1946 1949 1935 1906 1839 1635 1456 1302 1092 796 552 364 242 179 152 151 152 152 152 154 153 170 214 309 346 436 575 833 929 954 1014 1058 980 699 566 476 304 360 412 551 729 860 896 857 781 655 579 457 240 166 160 152 152 152 152 176 175 155 155 157 155 161 177 181 179 177 191 270 338 398 497 574 618 669 722 796 869 931 1106 1305 1495 1728 1793 1786 1760 1752 1774 1708 1597 1283 914 787 697 672 623 613 586 653 804 1065 1055 1025 1226 1238 1286 1381 1527 1614 1717 1805 1916 2160 2321 2281 2199 2145 2078 2072 2119 2178 2286 2353 2409 2505 2610 2784 2871 2754 2648 2536 2387 2277 2163 2060 1941 1768 1768 1784 1981 2083 2229 2291 2441 2616 2854 2620 2789 3004 2816 2694 3339 3218 3486 3526 3656 3841 3958 4000 4159 4601 4747 4535 3620 2997 2996 3259 3458 3497 3537 3828 4248 4705 5033 4647 3924 3623 3520 3654 3713 3798 4013 4340 4530 4199 4113 4106 4065 4075 4095 4143 4317 4484 4799 5229 5881 5829 5560 5294 4811 4507 4264 4110 4093 4079 4117 4199 4266 4752 5097 5415 5911 6262 6683 7169 7378 7784 7648 7653 7643 7805 7963 8250 8626 8799 8946 8922 9001 9154 9159 9212 9249 9257 9281 9322 9283 9018 9138 9145 8823 8351 7847 7596 7417 7041 7604 8037 8029 7430 6891 6581 6585 6716 7293 7215 6778 6102 5810 6017 6305 6348 6053 5809 6060 5993 5874 5700 5455 5291 5212 5172 5100 5048 4981 4849 4786 4762 4713 4710 4728 4681 4636 4625 4653 4657 4661 4652 4636 4623 4623 4623 4623 4623 4623 4623 4623 4623 4623 4623 4658 4668 4628 4658 4628 4700 4732 4728 4773 4848 4853 4965 4963 4958 5033 5180 5251 5242 5170 5088 4968 5197 5564 5864 6049 6417 7012 7579 8000 8854 8881 8757 8856 8774 8437 8364 8417 8410 8852 9167 9482 10077 10704 11280 11805 12215 12747 12554 12335 12154 12035 12035 12195 12352 12582 12900 13115 12478 11979 11965 11925 11719 11492 11194 10868 10408 9934 9366 8749 8461 8252 8194 8719 9134 9177 9202 9245 9202 9281 9477 9817 10000 10320 10807 11299 11982 12764 13270 13933 14473 14764 15025 15425 15885 16292 17030 17274 16700 16145 15828 15727 15734 15508 15325 14997 14715 14469 14218 13869 13495 13285 13597 13985 14512 15014 15597 15589 15490 15457 15450 15657 15808 15692 15113 14425 13639 12989 12208 11012 10360 10629 10789 10322 9277 9642 9637 8739 8215 8641 8412 7509 6657 6021 5417 5140 4913 5356 5350 5712 6087 6352 6507 6625 6405 6077 5576 5462 5294 4732 4163 3976 4013 4028 4230 5747 6329 5486 5215 5484 5912 6487 6941 7560 8862 9502 10057 10583 10713 10925 11323 11584 11764 12312 12717 13098 13489 13768 13978 14563 14914 15160 14827 14535 13929 13234 13175 13273 13229 13345 13665 13509 13320 13110 12653 12339 12015 11562 11254 10977 10522 10312 10100 9820 9510 9301 8962 8611 8329 7980 7692 7357 6852 6449 5919 5279 4918 4688 4615 4648 4680 4827 4917 5003 5241 5550 5882 6276 6841 7326 7876 8682 9056 9361 9535 9557 9452 9247 9217 9346 9675 9997 10237 10337 10505 10683 10820 10989 11168 11288 11400 11495 11458 11460 11577 11818 11937 11985 11990 11990 11980 12117 12303 12505 12663 12835 13007 13115 13270 13597 13790 13972 14225 14488 14755 14778 14768 14800 14873 14994 15070 15224 15025 14930 15360 15630 15854 15888 16375 16903 16572 16333 15650 14970 14143 13409 12417 11895 11438 11007 11240
0 0 0 0 0 0 0 0 0 0 0 0 0 0 0 0 0 0 0 0 0 0 0 0 0 0 0 0 0 0 0 0 0 0 0 0 0 0 0 0 0 0 0 0 0 0 0 0 0 0 0 0 0 0 0 0 0 0 0 0 0 0 0 0 0 0 0 0 0 0 0 0 0 0 0 0 0 0 0 0 0 0 0 0 0 0 0 0 0 0 0 0 0 0 0 0 0 0 0 0 0 0 0 0 0 0 0 0 0 0 0 0 0 0 0 0 0 0 0 0 0 0 0 0 0 0 0 0 0 0 0 0 0 0 0 0 0 0 0 0 0 0 0 0 0 0 0 0 0 0 0 0 0 0 0 0 0 0 0 1713 1753 1774 1780 1753 1715 1650 1727 1778 1820 1851 1866 1885 1911 1926 1937 1955 1977 1987 1953 1947 1863 1621 1433 1165 791 583 460 371 264 181 152 156 155 156 157 162 178 182 239 341 450 633 853 937 1006 1038 1034 1102 1002 887 681 483 575 459 509 637 802 1016 1038 953 817 738 681 370 169 152 153 156 135 179 175 181 163 155 155 143 143 143 183 183 177 181 196 219 352 475 575 683 746 766 780 837 915 1069 1230 1390 1641 1756 1771 1765 1779 1793 1763 1494 1010 762 653 634 605 586 577 638 803 1049 1184 1192 1222 1306 1346 1302 1330 1475 1549 1654 1750 1883 2096 2258 2425 2336 2214 2135 2133 2200 2254 2347 2396 2462 2525 2660 2829 2724 2645 2590 2528 2449 2341 2224 2080 1759 1768 1770 1846 1975 2221 2387 2579 2499 2508 2784 2788 2561 2875 2660 2859 3431 3673 3558 3557 3782 3832 3970 4119 4248 4658 4899 4155 3336 2859 3104 3473 3673 3625 3628 3913 4314 4807 5102 4858 4141 3701 3515 3608 3770 3880 4010 4291 4886 4430 4123 4081 4068 4065 4082 4121 4246 4436 4815 5304 6018 5637 5104 4665 4251 4122 4087 4059 4065 4082 4238 4610 4992 5443 5655 6003 6185 6480 7066 7567 8056 8434 8216 8097 8150 8162 8044 7928 8046 8213 8390 8534 8515 8536 8612 8647 8717 8747 8832 8845 8843 8942 9036 8522 8130 7674 7239 6955 6748 7016 7387 7630 7692 7316 6817 6230 6025 6397 6698 6652 6384 5941 5545 5430 5882 5725 5508 5359 5474 5407 5237 5132 5073 5071 5026 4913 4765 4739 4715 4681 4648 4611 4596 4625 4643 4623 4623 4623 4623 4622 4623 4623 4623 4623 4623 4623 4623 4623 4623 4623 4628 4632 4627 4623 4622 4623 4631 4631 4645 4661 4667 4682 4703 4713 4733 4760 4752 4795 4852 4921 4985 4961 4875 4865 5171 5639 6042 6435 6782 7241 7897 8219 8765 9772 9751 9310 9721 10034 10465 9322 9181 9002 8485 8472 8874 9702 10110 10663 11388 11750 12198 12790 13125 13015 12667 12737 12875 13040 13124 13583 13359 12645 12270 12320 12545 12325 11950 11668 11399 10723 10332 9946 9202 8855 8789 8662 8930 9327 9976 9905 9812 9556 9422 9397 9627 9792 9979 10460 11262 12025 12658 12970 13307 13710 13925 14265 14637 15017 15547 16403 16900 16392 15969 15664 15458 15105 14915 14715 14508 14275 14040 13688 13399 13065 12730 12960 13290 13799 14335 14838 15029 14478 14338 14243 14704 14840 15255 14743 14285 13763 13285 12552 11335 10377 9540 9741 9832 9205 8430 8661 8186 7190 7744 6910 5986 5716 5362 5052 5003 5399 5812 5932 6821 7582 7512 7287 7549 7402 6874 6212 5902 5697 5302 4565 4185 3998 4027 4073 4877 6205 6052 5277 5347 5627 6179 6601 7074 8176 9116 9757 9951 10067 10327 10764 11020 11415 11938 12245 12603 13109 13562 13922 14579 14954 15252 14739 14275 13807 13177 12990 12850 12673 12832 13067 13149 13027 12805 12364 12040 11684 11165 10830 10522 10112 9912 9665 9342 9039 8891 8647 8452 8207 7885 7582 7227 6726 6367 5966 5261 4930 4631 4623 4623 4628 4745 4885 4960 5162 5451 5762 6137 6596 7047 7717 8067 8659 8937 9042 9020 8869 8910 9262 9737 10076 10359 10784 10973 11057 11180 11298 11435 11574 11715 11812 11903 11877 11905 12082 12363 12450 12603 12665 12614 12352 12260 12195 12260 12383 12627 12863 12973 13100 13440 13659 13850 14177 14360 14563 14874 15197 15465 15653 15553 15597 15800 15549 15787 16035 16148 16413 16575 16732 16878 16255 15767 15457 14855 14142 13325 12360 11905 11435 11023 10874
0 0 0 0 0 0 0 0 0 0 0 0 0 0 0 0 0 0 0 0 0 0 0 0 0 0 0 0 0 0 0 0 0 0 0 0 0 0 0 0 0 0 0 0 0 0 0 0 0 0 0 0 0 0 0 0 0 0 0 0 0 0 0 0 0 0 0 0 0 0 0 0 0 0 0 0 0 0 0 0 0 0 0 0 0 0 0 0 0 0 0 0 0 0 0 0 0 0 0 0 0 0 0 0 0 0 0 0 0 0 0 0 0 0 0 0 0 0 0 0 0 0 0 0 0 0 0 0 0 0 0 0 0 0 0 0 0 0 0 0 0 0 0 0 0 0 0 0 0 0 0 0 0 0 0 0 0 0 0 1706 1754 1766 1772 1745 1754 1688 1699 1748 1803 1840 1853 1876 1902 1920 1937 1962 1987 2013 1985 2010 1961 1717 1531 1234 821 653 521 429 325 210 159 154 160 162 163 171 185 202 221 343 458 576 872 990 1050 1120 1122 1096 1108 1063 932 535 773 711 590 611 818 942 1111 1101 988 873 823 593 196 153 153 135 156 157 158 160 143 143 143 155 155 155 143 183 179 181 182 182 306 413 506 662 776 858 902 892 900 1046 1210 1322 1536 1683 1756 1770 1781 1801 1766 1529 1015 653 628 609 595 578 582 712 968 1169 1223 1221 1280 1347 1335 1330 1371 1418 1461 1533 1661 1828 2032 2176 2318 2396 2269 2181 2209 2251 2324 2406 2436 2483 2555 2614 2699 2611 2589 2555 2486 2441 2387 2309 2111 1728 1768 1826 1877 2088 2304 2562 2638 2697 2602 2603 2790 2499 2648 2777 3110 3224 3370 3633 3677 3811 3959 4015 4154 4351 4838 4440 3953 3243 2902 2999 3570 3745 3800 3583 4014 4385 4882 5019 5199 4280 3691 3473 3581 3751 3862 4048 4475 5031 4528 4145 4101 4062 4058 4070 4111 4187 4375 4880 5485 6235 5578 4956 4453 4124 4075 4055 4055 4090 4131 4710 5205 5698 5733 5723 6350 6736 6618 6661 7069 7661 8239 8566 8410 8357 8439 8421 8331 8237 8189 8102 8203 8284 8262 8505 8543 8594 8731 8751 8858 8940 9042 8765 8309 7906 7494 7110 6633 6353 6729 7037 7258 7231 7131 6717 5988 5657 5997 6173 6177 6100 5733 5398 5175 5438 5195 5133 5133 4924 4883 4829 4859 4913 4913 4853 4810 4704 4672 4651 4621 4588 4537 4596 4605 4622 4625 4630 4633 4633 4627 4623 4623 4623 4623 4623 4623 4623 4628 4628 4631 4633 4640 4632 4623 4633 4641 4653 4655 4663 4675 4682 4690 4708 4716 4717 4722 4728 4743 4796 4830 4850 4836 4821 4928 5582 5842 6391 6822 7245 7785 8565 9012 9502 10905 10363 9697 10313 10792 11569 10313 9767 9509 8587 8504 8679 9380 9747 10265 10965 11403 11910 12324 12648 12883 13294 13415 13584 13720 13815 13930 13660 13142 12729 12620 12628 12690 12242 12127 11828 11192 10695 10150 9510 9424 9316 9054 9212 9569 10250 10440 10275 10044 9852 9732 9795 9892 10186 10669 11870 12223 12665 12919 12795 13030 13308 13587 14158 14720 15199 16107 16523 16110 15514 15219 14960 14590 14403 14284 14122 13904 13605 13199 12997 12625 12365 12514 12849 13390 13998 14359 14730 14150 13454 13535 13797 13963 14732 14185 13620 12908 12780 12508 11533 10607 9736 8907 9082 8802 7885 7697 7480 6761 6532 5855 5442 5275 5227 5306 5382 5806 6334 6620 7721 8465 8504 8244 8242 8099 7547 6711 6262 5952 5546 4828 4441 4115 4048 4083 4376 5222 6239 5472 5359 5496 6092 6482 6897 7662 8299 8920 9342 9917 10192 10462 10875 11187 11648 12010 12454 13110 13493 13882 14545 14960 15345 14885 14369 14097 13505 13210 13179 12530 12618 12728 12804 12647 12432 12067 11784 11473 10944 10524 10179 9862 9542 9275 8992 8736 8487 8269 8087 7882 7632 7446 7089 6626 6285 5914 5297 4941 4632 4633 4636 4633 4711 4840 4921 5100 5420 5754 6059 6461 6862 7492 7929 8202 8674 8532 8527 8552 9041 9426 9905 10195 10575 11012 11304 11392 11510 11617 11769 11942 12040 12175 12269 12258 12255 12525 12829 12877 12947 13022 13010 12809 12535 12372 12340 12374 12520 12750 12910 13015 13329 13565 13778 14158 14312 14460 14678 14915 15172 15609 15939 16118 16129 16253 16332 16440 16667 16864 16525 16375 16470 15880 15454 15122 14560 13934 13350 12469 11922 11413 10947 10675
0 0 0 0 0 0 0 0 0 0 0 0 0 0 0 0 0 0 0 0 0 0 0 0 0 0 0 0 0 0 0 0 0 0 0 0 0 0 0 0 0 0 0 0 0 0 0 0 0 0 0 0 0 0 0 0 0 0 0 0 0 0 0 0 0 0 0 0 0 0 0 0 0 0 0 0 0 0 0 0 0 0 0 0 0 0 0 0 0 0 0 0 0 0 0 0 0 0 0 0 0 0 0 0 0 0 0 0 0 0 0 0 0 0 0 0 0 0 0 0 0 0 0 0 0 0 0 0 0 0 0 0 0 0 0 0 0 0 0 0 0 0 0 0 0 0 0 0 0 0 0 0 0 0 0 0 0 0 0 1710 1740 1751 1757 1748 1743 1650 1699 1729 1773 1819 1829 1860 1892 1915 1938 1962 1981 1996 1997 2001 1981 1802 1619 1421 1031 799 668 470 438 272 182 157 165 167 171 174 192 240 219 345 546 552 853 982 1065 1170 1204 1165 1135 1120 1081 944 916 925 740 697 759 980 1069 1169 1215 1141 1053 597 224 167 153 156 159 156 156 156 156 156 155 163 161 156 143 183 181 182 182 182 261 348 471 667 808 971 1080 1075 1060 1053 1192 1329 1479 1603 1694 1764 1771 1798 1759 1548 1115 657 610 599 585 577 622 781 1023 1191 1253 1272 1341 1341 1335 1367 1485 1531 1582 1579 1558 1758 1979 2088 2173 2300 2281 2236 2275 2316 2385 2448 2483 2515 2593 2634 2637 2567 2529 2515 2501 2452 2397 2280 1993 1706 1792 1848 1942 2131 2351 2622 2671 2724 2749 2671 2744 2499 2695 2942 3220 3355 3391 3446 3651 3911 3941 4149 4357 4536 5097 4732 4127 3549 2957 2886 3518 3665 3780 3583 4045 4402 4870 5069 4994 4128 3631 3477 3631 3769 3829 4018 4320 4970 5028 4448 4141 4058 4050 4064 4100 4137 4306 4989 5733 6406 5502 4805 4306 4049 4036 4023 4066 4131 4416 5084 5683 6237 5875 5672 6286 7282 6794 6626 6747 7141 7763 8238 7983 7818 8085 8439 8572 8587 8579 8549 8430 8408 8593 8861 8909 9015 9215 9205 9239 9067 8790 8532 8237 8001 7546 6955 6487 6071 6281 6561 6714 6675 6594 6456 5844 5394 5542 5781 5794 5741 5443 5099 5045 4952 4870 4865 4960 4848 4717 4676 4757 4786 4786 4757 4718 4639 4619 4605 4586 4532 4538 4600 4606 4615 4626 4633 4637 4636 4633 4623 4623 4623 4623 4623 4623 4627 4638 4642 4633 4643 4646 4633 4645 4653 4665 4676 4680 4685 4692 4696 4700 4716 4747 4743 4740 4737 4735 4753 4775 4783 4778 4832 5224 5826 6291 6722 7236 7710 8349 9097 9676 10268 11442 11170 10374 10839 11583 11925 11555 11008 9862 8882 8526 8534 9027 9477 9946 10555 11205 11632 12035 12304 12469 12837 12870 12840 13318 13622 13842 14034 13287 13178 12859 12575 12618 12442 12454 12123 11515 10928 10469 10092 9947 9691 9540 9627 9909 10473 10829 11053 10809 10519 10194 10150 10355 10720 11332 11953 12202 12287 12397 12395 12630 12875 13245 13994 14612 15119 15884 16240 15814 15255 14825 14568 14184 13874 13812 13594 13480 13209 12893 12545 12252 11959 12167 12447 13109 13562 13918 14314 14033 12937 12805 12923 13178 14355 13898 13028 12170 11962 11920 11283 10523 9924 8702 8290 8085 7617 7077 6779 6295 6095 5696 5337 5502 5529 5615 5835 6262 7015 7802 8507 9349 9506 9167 8801 8675 8112 7247 6682 6047 5412 5057 4545 4291 4108 4136 4171 4751 5960 5932 5487 5532 5930 6282 6665 7209 7642 8682 9802 10309 10585 10720 10729 10973 11582 12084 12577 13207 13602 14030 14530 14972 15362 15145 14678 14387 13689 13635 13315 12497 12365 12443 12400 12320 12128 11697 11522 11303 10757 10260 9931 9724 9504 9327 9135 9016 8717 8284 7905 7545 7241 7160 6957 6511 6195 5821 5300 4977 4746 4650 4642 4671 4745 4817 4883 5036 5367 5722 6159 6425 6704 7242 7635 8087 8276 8295 8057 8592 9112 9415 9862 10196 10552 11065 11388 11638 11898 12055 12174 12342 12448 12578 12694 12577 12574 13293 13444 13412 13199 13260 13263 13100 12972 12890 12863 12780 12735 12792 12864 13022 13305 13629 13997 14280 14362 14430 14523 14699 14895 15197 15495 15779 16195 16563 16835 16508 16393 16345 16003 15744 15865 15700 15155 14790 14195 13657 13345 12558 11978 11414 10949 10573
0 0 0 0 0 0 0 0 0 0 0 0 0 0 0 0 0 0 0 0 0 0 0 0 0 0 0 0 0 0 0 0 0 0 0 0 0 0 0 0 0 0 0 0 0 0 0 0 0 0 0 0 0 0 0 0 0 0 0 0 0 0 0 0 0 0 0 0 0 0 0 0 0 0 0 0 0 0 0 0 0 0 0 0 0 0 0 0 0 0 0 0 0 0 0 0 0 0 0 0 0 0 0 0 0 0 0 0 0 0 0 0 0 0 0 0 0 0 0 0 0 0 0 0 0 0 0 0 0 0 0 0 0 0 0 0 0 0 0 0 0 0 0 0 0 0 0 0 0 0 0 0 0 0 0 0 0 0 0 1694 1706 1716 1714 1726 1709 1650 1707 1726 1749 1790 1833 1861 1897 1917 1938 1959 1970 1987 1991 1984 1974 1863 1719 1546 1119 890 740 621 546 422 289 193 169 169 176 181 204 309 304 261 493 606 823 770 983 1124 1195 1236 1170 1164 1167 1114 1049 1054 972 908 882 831 940 1154 1261 1286 1277 581 293 180 183 176 156 157 156 156 156 143 185 172 161 155 181 183 182 184 182 182 232 373 462 606 768 954 1224 1281 1267 1252 1245 1282 1474 1568 1637 1703 1743 1771 1690 1259 952 614 591 582 573 571 589 941 1148 1248 1292 1342 1345 1339 1355 1518 1702 1724 1729 1719 1667 1627 1854 1979 2047 2150 2226 2286 2365 2403 2444 2515 2541 2559 2671 2639 2551 2497 2450 2408 2451 2413 2279 2009 1792 1706 1798 1859 1992 2264 2511 2604 2694 2698 2680 2625 2516 2602 3215 3215 3186 3291 3563 3610 3786 4100 4067 4206 4563 4876 4787 4789 4220 3523 3049 2863 3503 3756 3792 3560 4148 4579 4953 4822 4503 3945 3497 3542 3572 3729 3853 3943 4146 4615 5099 4713 4223 4034 4035 4052 4084 4120 4248 5092 5887 5961 5206 4586 4140 3969 3987 4028 4118 4356 4775 5328 6094 6046 5881 5696 6065 6762 6882 6585 6554 6632 6981 7206 7220 7206 7542 7723 8006 8661 8921 8885 8899 8967 9104 9451 9518 9561 9266 8959 8600 8318 8176 7983 7688 7362 7094 6670 6300 5841 5690 5851 5874 5887 5859 5881 5442 5192 5156 5156 5205 5177 4987 4904 4900 4823 4778 4765 4786 4735 4621 4496 4576 4640 4496 4560 4589 4581 4568 4568 4571 4561 4586 4630 4623 4618 4623 4630 4633 4640 4633 4630 4633 4633 4627 4623 4628 4643 4658 4663 4665 4675 4676 4668 4683 4698 4706 4713 4717 4717 4717 4717 4720 4725 4752 4766 4768 4756 4747 4747 4746 4753 4811 5007 5497 6186 6677 7170 7735 8266 8627 9297 9795 10107 10989 11547 11910 11930 12105 12607 11925 10859 10149 9211 8651 8614 9157 9537 9849 10192 10770 11110 11615 11872 12087 12323 12369 12274 12553 12933 13195 13534 13850 13744 13255 13127 12958 12779 12818 12367 11920 11453 10850 10767 10615 10302 10181 10464 10824 11685 12290 11818 11600 11570 11282 11208 11730 11959 12292 12480 12170 12012 12012 12012 12032 12512 13140 14215 14765 15205 15855 15847 15367 14734 14315 13995 13570 13232 12982 12899 12800 12635 12375 12045 11680 11439 11629 12094 12732 12904 13210 13644 13778 12858 11820 11859 12470 13022 12957 12793 11630 10995 10525 10409 9904 9190 8335 7635 7180 6891 6575 6356 5940 5577 5481 5777 5886 5727 6161 6592 7397 8401 8846 9645 10565 11034 10753 9964 9409 8684 7764 7201 6477 6049 5567 4858 4543 4147 4135 4128 4335 5174 6707 6316 5625 5977 6345 6670 7162 7729 8494 9484 10007 10575 11270 11473 11388 11320 11789 12412 13150 13695 14224 14832 15274 15647 15814 15472 14764 14037 14228 13470 12650 12294 12085 11984 11864 11710 11408 11255 11100 10939 10583 10254 10031 9806 9727 9794 9527 9084 8571 8129 7724 7299 6837 6686 6324 6031 5747 5292 5037 4821 4648 4655 4683 4736 4788 4880 4985 5269 5610 6111 6334 6525 6971 7332 7614 7655 7765 8067 8522 8971 9301 9725 10072 10450 10977 11328 11622 11965 12272 12602 12950 13050 13180 13253 13122 13155 13782 14232 14298 13714 13500 13490 13437 13495 13498 13608 13547 13339 13022 12975 13130 13365 13690 14157 14399 14500 14523 14520 14517 14520 14762 14980 15249 15654 15977 16200 15984 15652 15640 15350 15033 15077 15147 14587 14185 13948 13508 12849 12310 11803 11310 10757 10344
0 0 0 0 0 0 0 0 0 0 0 0 0 0 0 0 0 0 0 0 0 0 0 0 0 0 0 0 0 0 0 0 0 0 0 0 0 0 0 0 0 0 0 0 0 0 0 0 0 0 0 0 0 0 0 0 0 0 0 0 0 0 0 0 0 0 0 0 0 0 0 0 0 0 0 0 0 0 0 0 0 0 0 0 0 0 0 0 0 0 0 0 0 0 0 0 0 0 0 0 0 0 0 0 0 0 0 0 0 0 0 0 0 0 0 0 0 0 0 0 0 0 0 0 0 0 0 0 0 0 0 0 0 0 0 0 0 0 0 0 0 0 0 0 0 0 0 0 0 0 0 0 0 0 0 0 0 0 1661 1679 1689 1686 1677 1706 1701 1700 1702 1753 1754 1806 1844 1886 1906 1924 1940 1958 1973 1986 1996 1995 1984 1893 1750 1526 1305 1149 865 731 620 513 379 273 181 170 174 191 236 291 350 416 536 600 883 1032 801 1046 1141 1207 1227 1188 1186 1169 1130 1086 1049 1013 1002 985 1019 1146 1272 1372 1070 457 294 182 183 183 184 156 143 143 143 178 183 171 162 155 183 183 182 184 182 182 208 347 458 635 756 902 1239 1312 1350 1350 1338 1329 1428 1539 1597 1656 1682 1692 1541 1237 938 623 592 580 571 582 571 947 1192 1264 1333 1348 1342 1340 1398 1594 1759 1785 1797 1805 1795 1728 1726 1864 1970 2154 2219 2274 2347 2391 2447 2535 2590 2631 2614 2557 2518 2464 2428 2374 2372 2393 2256 1999 1706 1706 1828 1883 2114 2409 2543 2628 2618 2659 2651 2463 2516 2713 3203 3287 3346 3289 3485 3726 3764 4045 4281 4283 4319 4415 4512 4518 4134 3470 2921 2859 3565 3739 3813 3558 3982 4597 4781 4505 4232 3935 3465 3526 3536 3746 3840 3939 4055 4285 4678 4656 4222 3986 4015 4043 4083 4134 4283 5051 5803 5738 4896 4394 3976 3969 3984 4039 4182 4506 4885 5385 5828 5526 5493 5472 5514 6070 6291 6327 6475 6469 6569 6828 6982 7060 7056 7224 7565 8032 8355 8631 8829 8806 8969 9294 9260 9059 8764 8434 7938 7693 7596 7467 7127 6915 6660 6317 5972 5657 5220 5364 5326 5263 5250 5191 5038 5066 5042 4901 4853 4849 4832 4830 4826 4787 4747 4724 4716 4663 4531 4511 4511 4543 4496 4539 4544 4537 4543 4553 4600 4620 4712 4633 4633 4626 4626 4631 4631 4641 4633 4633 4643 4646 4637 4638 4642 4656 4678 4688 4698 4710 4713 4717 4733 4733 4738 4743 4743 4740 4736 4736 4738 4738 4743 4763 4780 4786 4773 4785 4768 4786 4843 5120 5627 6237 6885 7421 8057 8367 8765 9157 9596 9985 10663 11183 11773 12155 12458 12888 11803 10720 10288 9539 9114 8762 9129 9571 9696 9902 10237 10863 11290 11505 11722 12038 12085 11945 12154 12369 12620 12895 13260 13633 13875 13730 13503 13277 13213 12740 12205 11717 11114 11223 11223 10980 10740 11194 11362 11965 12580 12377 12079 12004 11947 12105 12183 12342 12574 12875 12767 12012 12012 12012 12052 12603 13270 14417 14860 15303 16020 15562 15170 14480 13995 13615 13109 12704 12355 12325 12290 12252 12010 11728 11328 10997 11319 11808 12358 12342 12688 13077 13293 12817 11017 11154 11858 12074 11842 12264 11277 10384 9981 9500 9175 8725 7786 7285 6652 6362 6094 5989 5670 5534 5717 5984 6107 6377 6816 7337 7772 8842 9657 10527 11315 11809 11620 10705 9721 9071 8220 7516 7162 6595 5869 5210 4783 4280 4131 4157 4225 4653 6352 6357 5674 5889 6275 6601 7132 7747 8357 9172 9767 10221 11023 11642 12015 11690 11620 12154 13008 13682 14167 14817 15389 15503 15023 14680 14133 14147 14105 13387 12655 12230 11705 11545 11525 11470 11322 11184 11214 11085 10712 10394 10097 10081 10132 9965 9472 9000 8777 8374 7857 7359 6941 6614 6072 5817 5624 5271 5042 4811 4661 4657 4676 4703 4746 4865 4955 5162 5472 5916 6180 6419 6827 7036 7326 7680 7732 8064 8447 8846 9154 9607 9962 10231 10675 10978 11319 11762 12075 12359 12618 12830 12960 13370 13575 13559 14183 14457 14655 14090 13652 13593 13687 13795 13830 13929 13763 13397 13108 13035 13115 13375 13760 14142 14360 14464 14524 14485 14427 14415 14508 14664 14925 15272 15525 15777 15638 15194 15069 14855 14509 14515 14590 14163 13750 13560 13262 12757 12040 11627 11200 10695 10353
0 0 0 0 0 0 0 0 0 0 0 0 0 0 0 0 0 0 0 0 0 0 0 0 0 0 0 0 0 0 0 0 0 0 0 0 0 0 0 0 0 0 0 0 0 0 0 0 0 0 0 0 0 0 0 0 0 0 0 0 0 0 0 0 0 0 0 0 0 0 0 0 0 0 0 0 0 0 0 0 0 0 0 0 0 0 0 0 0 0 0 0 0 0 0 0 0 0 0 0 0 0 0 0 0 0 0 0 0 0 0 0 0 0 0 0 0 0 0 0 0 0 0 0 0 0 0 0 0 0 0 0 0 0 0 0 0 0 0 0 0 0 0 0 0 0 0 0 0 0 0 0 0 0 0 0 0 0 1676 1695 1678 1658 1642 1692 1677 1658 1690 1755 1798 1840 1874 1900 1918 1931 1945 1960 1973 1985 2002 2011 2007 1914 1839 1724 1408 1225 1008 785 680 588 459 368 245 170 181 186 232 283 345 450 604 689 737 941 1101 914 1109 1182 1213 1215 1202 1182 1164 1126 1079 1103 1085 1088 1157 1188 1281 1362 962 400 286 166 183 183 183 183 183 143 180 180 176 168 159 143 184 184 182 185 182 182 195 292 426 633 748 874 1207 1315 1366 1398 1405 1411 1402 1474 1552 1597 1611 1598 1345 1076 877 644 602 581 573 580 585 930 1196 1283 1346 1347 1341 1353 1404 1577 1741 1796 1833 1858 1867 1858 1767 1827 1974 2141 2195 2236 2290 2316 2378 2501 2558 2554 2530 2515 2489 2423 2389 2360 2322 2321 2280 1942 1706 1706 1844 1970 2208 2547 2628 2673 2659 2611 2606 2463 2560 2607 3164 3280 3331 3366 3474 3683 3951 3870 4158 4679 4746 4425 4324 4330 4164 3683 3194 2859 3494 3812 3727 3558 3804 4344 4224 4195 4104 3746 3453 3485 3536 3687 3789 3916 3996 4142 4331 4463 4197 3872 3914 4017 4098 4181 4348 5039 5540 5458 4695 4249 3968 3969 3988 4039 4298 4576 4843 5220 5386 5252 5227 5259 5230 5520 5821 6022 6364 6402 6455 6725 6883 6944 6927 6991 7150 7468 7746 7961 8077 7986 8240 8497 8505 8387 8170 7881 7601 7281 7134 6964 6688 6453 6217 5890 5663 5342 5099 4992 5100 5013 4961 4893 4920 4935 4919 4863 4790 4762 4777 4781 4781 4753 4722 4684 4658 4615 4511 4511 4496 4511 4511 4528 4526 4511 4520 4542 4593 4647 4721 4633 4633 4633 4633 4636 4638 4643 4645 4643 4655 4657 4650 4658 4668 4681 4701 4713 4723 4741 4752 4833 4883 4816 4845 4916 4875 4820 4755 4761 4766 4756 4758 4772 4798 4870 4913 4950 4867 4826 4857 4918 5471 6472 7192 7672 8292 8670 8924 9302 9545 9879 10288 10875 11278 11753 12195 12585 12639 11332 10728 9991 9485 9049 8991 9380 9355 9692 10016 10614 11160 11287 11374 11575 11549 11635 11815 11975 12120 12417 12722 13009 13620 14045 14140 14062 13612 12934 12267 11914 11587 11500 11672 11572 11420 11470 11895 12278 12728 12924 12613 12410 12370 12489 12524 12607 12889 13139 13390 12455 12165 12220 12410 12833 13805 14557 14920 15525 15690 15325 14917 14238 13770 13357 12790 12435 11999 11722 11783 11825 11603 11352 10993 10628 11005 11494 11818 11818 12143 12463 12595 12680 11340 10513 11005 11293 10885 11540 10807 9831 9229 8892 8475 8034 7277 6807 6382 6011 5817 5665 5561 5771 6015 6251 6401 6601 7440 7902 8407 9277 9945 10480 11623 12340 12230 11238 10345 9527 8662 8149 7592 6862 6041 5587 5101 4466 4173 4146 4198 4277 5587 5929 5667 5781 6154 6487 7082 7650 8302 9024 9722 10167 10782 11405 12212 12195 11890 11957 12769 13377 13914 14728 15355 15030 14375 14117 13859 14074 13479 13242 12505 12037 11599 11357 11329 11278 11280 11260 11272 11200 10808 10549 10414 10502 10388 9956 9601 9200 8705 8234 7827 7316 6910 6607 6217 5884 5512 5227 5011 4786 4667 4657 4671 4688 4696 4751 4913 4998 5292 5732 6002 6269 6601 6955 7316 7459 7750 8087 8402 8732 8970 9439 9762 9987 10405 10688 11014 11499 11865 12040 12247 12468 12637 13160 13585 14027 14410 14573 14719 14495 13818 13635 13715 13845 13982 13980 13798 13585 13278 13097 13153 13382 13754 14087 14304 14419 14524 14500 14385 14339 14353 14430 14613 14895 15148 15418 15457 14992 14555 14304 14120 13969 14090 13675 13322 13049 12795 12342 11812 11385 10965 10593 10282
