ncols        716
nrows        32
xllcorner    544725
yllcorner    5340655
cellsize     100.000000000000
NODATA_value 0
0 0 0 0 0 3 3 3 3 3 6 5 5 11 10 6 3 18 18 18 17 16 16 16 16 16 20 20 18 18 18 20 26 39 34 31 143 276 369 421 490 471 446 433 424 496 606 648 631 614 603 576 521 477 446 389 425 390 320 356 365 368 384 409 495 567 609 664 703 749 770 783 782 736 692 667 758 854 861 969 975 1029 1058 1052 1068 1096 1103 1099 1047 1027 1012 1004 1014 1018 1027 1036 1052 1085 1101 1091 1039 980 918 880 852 854 921 922 897 912 912 952 1003 1041 1089 1159 1171 1158 1156 1231 1163 975 975 966 907 934 908 778 685 739 698 675 646 734 922 993 914 876 933 937 915 884 864 873 868 841 801 752 766 679 426 319 270 236 372 354 411 447 467 499 624 644 663 657 652 660 667 658 650 659 671 673 607 580 555 535 643 732 738 683 682 751 815 841 993 1068 1114 1114 1062 982 832 756 677 589 627 717 762 727 682 569 516 504 508 531 555 599 674 742 772 812 891 898 844 902 981 975 972 969 970 972 997 1027 1039 860 666 574 740 754 748 735 706 570 323 245 245 245 245 250 262 268 272 271 276 286 287 335 282 271 265 263 267 271 277 272 272 272 282 285 301 329 328 329 339 351 361 405 426 429 673 992 1241 1531 1441 1208 1839 2122 2256 2648 2824 2855 3162 3255 3311 3451 3486 3535 3619 3825 4055 4464 4797 4988 5296 5410 5325 5404 5434 5394 5064 4841 4616 4396 4255 4140 4104 4078 4061 4045 4032 4000 3895 3751 3609 3426 3369 3316 2985 2982 3168 3201 3173 3236 3268 3428 3543 3605 3629 3585 3446 3196 2738 2030 1745 1677 1684 1676 1666 1655 1657 1653 1652 1652 1666 1699 1670 1935 2308 2694 3115 3473 3785 4131 4783 5468 6114 6633 7096 7410 7641 7837 7879 7817 7667 7779 7925 8033 8268 8476 8503 8395 8283 8365 8355 8330 8262 8175 8057 7781 7432 6803 6718 6429 6416 6394 6347 6275 6154 6191 6129 6137 6128 5991 5699 5161 5030 4947 4763 4431 4236 4084 4001 3946 3849 3805 3624 3663 3547 3608 3665 3652 3677 3552 3492 3531 3748 3950 4325 4496 4591 4629 4526 4021 3528 3089 3015 3597 4187 4671 4781 4839 5001 5277 5534 5957 6353 6591 6976 7310 7684 7996 8054 8069 8077 8099 8179 8255 8220 8192 8136 8252 8297 8309 8187 7811 7188 6873 6617 6281 6020 6114 6545 6304 5665 6785 7330 8107 8954 9674 10345 11295 12289 12318 12352 12650 12772 11753 11256 11146 10533 10401 9981 9840 10341 10837 11687 12079 12312 12870 13652 14028 13273 12502 11959 11630 11291 11055 11389 11712 11565 11320 11122 10204 9294 8664 8403 8192 8270 8622 8151 7792 7123 6185 5973 5821 6023 6110 6702 6477 6113 5803 5396 4782 4115 3082 2705 2631 2531 2578 2963 2762 2558 2668 2557 2449 2329 2308 2298 2316 2107 2128 2214 2173 2183 2180 2088 2086 2266 2491 2605 2495 2270 2182 2115 1986 1908 1857 1841 1813 1815 1808 1782 1792 1837 1834 1809 1777 1809 1849 1847 1813 1778 1746 1820 1942 1900 2079 2206 0 0 0 0 0 0 0 0 0 0 0 0 0 0 0 0 0 0 0 0 0 0 0 0 0 0 0 0 0 0 0 0 0 0 0 0 0 0 0 0 0 0 0 0 0 0 0 0 0 0 0 0 0 0 0 0 0 0 0 0 0 0 0 0 0 0 0 0 0 0 0 0 0 0 0 0 0 0 0 0 0 0 0 0 0 0 0 0 0 0 0 0 0 0 0 0 0 0 0 0 0 0 0 0 0 0 0 0 0 0 0 0 0 0 0 0 0 0 0 0 0 0 0 0 0 0 0 0 0 0 0 0 0 0 0 0 0 0 0
0 0 0 0 0 0 3 4 4 4 6 6 6 12 11 6 10 18 18 17 17 17 17 17 16 16 20 20 20 19 18 22 37 31 37 31 31 269 333 384 458 447 426 411 411 425 501 541 568 563 554 549 498 464 419 362 386 371 291 374 381 391 413 443 524 585 639 717 759 784 804 814 816 802 775 755 740 844 926 944 992 1013 1056 1098 1102 1123 1150 1140 1100 1044 1023 1014 1012 1017 1026 1032 1046 1076 1091 1097 1057 1018 949 882 847 831 861 853 850 851 875 907 944 984 1014 1047 1123 1161 1130 1136 1127 995 912 921 850 893 908 817 746 658 643 609 601 692 777 909 940 869 837 888 880 869 786 824 835 818 792 744 632 537 408 316 257 218 306 372 407 448 474 532 604 623 639 645 652 665 673 663 645 642 649 656 655 600 572 541 551 676 746 740 657 664 729 789 843 961 1052 1082 1031 952 843 771 714 566 573 669 755 735 707 660 571 499 500 546 674 615 618 775 779 915 994 1010 994 911 888 977 977 974 976 983 1008 997 921 796 741 525 683 723 731 710 696 681 358 245 245 250 245 247 262 274 284 293 304 360 504 552 276 269 269 270 272 274 275 272 288 296 347 480 429 364 362 360 363 397 426 419 545 772 925 1141 1555 1965 2096 1915 1886 2419 2603 2830 2972 3200 3313 3586 3728 3777 3794 3809 3915 3931 3969 4320 4549 4861 5313 5299 5205 5223 5218 5147 4964 4733 4495 4308 4185 4128 4101 4065 4038 4015 3965 3868 3714 3612 3497 3371 3322 3226 2893 3244 3322 3254 3175 3154 3239 3418 3512 3590 3624 3630 3556 3404 3063 2406 1850 1699 1694 1685 1679 1670 1660 1655 1666 1662 1674 1715 1698 1975 2347 2733 3176 3535 3833 4264 4911 5618 6200 6988 7458 7913 8292 8413 8421 8363 8209 8249 8439 8558 8743 8903 8905 8796 8797 8834 8825 8789 8747 8733 8475 8225 7724 7533 7432 7343 7262 7176 7092 7010 6987 6974 6844 6876 6910 6472 6173 6191 6110 6010 5763 5297 5016 4767 4314 4245 4073 4076 3991 3985 3962 3967 3971 3916 3935 3873 3909 3881 3809 3830 4052 4283 4380 4592 4495 4178 3851 3638 3022 3185 3745 4278 4405 4467 4578 4600 4648 5431 5811 6040 6483 6906 7421 8029 8249 8345 8473 8567 8704 8807 9083 9139 9104 9202 9309 9313 9105 8709 7882 7597 7303 7033 6800 6788 7177 6828 6168 6595 7198 7835 8516 9137 9700 10689 11071 11246 11863 12556 12847 12305 12319 12514 11762 10839 10133 9995 10268 10711 11076 11325 11811 12495 12818 13479 13690 12969 12549 12215 12040 11921 12059 12294 12809 12133 11148 10324 9721 9351 9178 8993 8822 9184 8891 8347 7440 6780 6528 6083 6471 6678 7301 7146 6775 6309 5463 4739 4286 3343 2848 2762 2636 2613 3088 3494 3293 3150 2928 2660 2617 2566 2533 2576 2340 2253 2337 2336 2334 2310 2183 2200 2169 2185 2272 2273 2242 2181 2118 1996 1922 1904 1871 1829 1853 1861 1837 1874 1945 1923 1844 1812 1819 1830 1848 1817 1801 1781 1834 1950 1980 2126 2224 0 0 0 0 0 0 0 0 0 0 0 0 0 0 0 0 0 0 0 0 0 0 0 0 0 0 0 0 0 0 0 0 0 0 0 0 0 0 0 0 0 0 0 0 0 0 0 0 0 0 0 0 0 0 0 0 0 0 0 0 0 0 0 0 0 0 0 0 0 0 0 0 0 0 0 0 0 0 0 0 0 0 0 0 0 0 0 0 0 0 0 0 0 0 0 0 0 0 0 0 0 0 0 0 0 0 0 0 0 0 0 0 0 0 0 0 0 0 0 0 0 0 0 0 0 0 0 0 0 0 0 0 0 0 0 0 0 0 0
0 0 0 0 0 3 6 3 4 5 5 9 6 13 13 8 22 18 18 17 17 17 18 18 18 17 21 21 20 21 19 22 43 38 34 31 31 198 265 311 390 404 399 397 403 413 438 483 513 515 497 491 463 440 390 293 378 296 371 377 386 403 417 435 505 578 645 733 779 806 826 835 839 829 814 805 790 823 926 921 965 989 1057 1104 1120 1144 1170 1170 1151 1084 1033 1026 1015 1015 1024 1030 1044 1072 1086 1084 1064 1044 984 897 852 826 825 839 814 825 858 879 904 938 962 973 1030 1113 1135 1090 1111 1003 926 850 858 839 865 823 772 695 593 587 598 679 710 808 938 898 796 834 852 841 739 755 781 782 765 735 636 482 386 304 245 235 373 395 425 506 470 516 567 606 621 636 643 656 674 649 621 623 627 642 677 622 586 549 532 608 714 740 680 656 662 728 773 848 969 1043 1009 914 829 781 734 593 529 608 747 738 716 681 634 519 492 616 882 755 664 791 810 1003 936 1008 1005 987 907 977 976 976 986 995 995 985 848 781 754 659 520 608 680 681 668 670 325 245 245 254 251 245 263 276 288 302 335 383 498 502 269 269 269 271 284 283 282 289 310 326 374 571 527 454 467 498 632 676 675 690 647 621 797 1180 1830 2433 2526 2489 2042 2503 2867 3086 3207 3389 3515 3593 3641 3765 3877 3923 4004 4027 4066 4243 4484 4722 5207 5209 5078 5101 5088 5039 4868 4604 4403 4261 4174 4148 4127 4071 4010 3973 3919 3798 3670 3530 3434 3344 3280 3025 3170 3300 3331 3246 3155 3132 3203 3330 3463 3560 3598 3620 3580 3439 3148 2583 2090 1757 1693 1681 1673 1655 1646 1642 1642 1653 1669 1674 1695 1933 2337 2709 3170 3541 3850 4389 5039 5810 6388 7169 7679 8168 8712 8789 8809 8751 8615 8606 8838 8996 9171 9218 9179 9092 9046 9064 9052 9052 9015 8950 8850 8451 8158 8167 8171 8115 8017 7890 7768 7537 7433 7441 7375 7355 7357 6828 6905 6864 6721 6578 6412 6005 5691 5381 4949 4462 4350 4405 4255 4254 4241 4231 4223 4189 4170 4141 4110 4097 4057 3967 3905 3869 4167 4304 4360 4098 3819 3397 3158 2971 3486 4000 3995 3962 4090 4024 4272 5019 5357 5647 6007 6437 6987 7773 8087 8250 8401 8674 8955 9151 9270 9463 9833 9947 9956 9907 9685 9358 8748 8281 7892 7476 7310 7296 7399 7115 6626 6249 6912 7519 8185 8720 9293 9988 10354 10708 11503 11967 12365 12415 12639 12625 11564 11213 10780 10375 10431 10749 10794 11127 11366 11882 12380 12626 13321 13457 13042 12783 12596 12490 12517 12915 12724 11785 11171 10690 10106 9970 9748 9535 9796 9608 8968 8435 7673 7062 6802 6484 6734 7022 7697 7644 7051 6561 5730 5108 4607 3674 3139 2836 2743 2706 3019 4039 3888 3615 3345 3055 2891 2783 2759 2646 2596 2392 2406 2493 2453 2375 2234 2238 2200 2249 2298 2289 2185 2090 2052 1953 1950 1944 1911 1897 1899 1900 1898 1927 2009 1980 1844 1828 1849 1857 1862 1843 1825 1750 1892 1946 1969 2036 2224 2298 0 0 0 0 0 0 0 0 0 0 0 0 0 0 0 0 0 0 0 0 0 0 0 0 0 0 0 0 0 0 0 0 0 0 0 0 0 0 0 0 0 0 0 0 0 0 0 0 0 0 0 0 0 0 0 0 0 0 0 0 0 0 0 0 0 0 0 0 0 0 0 0 0 0 0 0 0 0 0 0 0 0 0 0 0 0 0 0 0 0 0 0 0 0 0 0 0 0 0 0 0 0 0 0 0 0 0 0 0 0 0 0 0 0 0 0 0 0 0 0 0 0 0 0 0 0 0 0 0 0 0 0 0 0 0 0 0 0
0 0 0 0 0 0 4 6 3 5 4 9 9 15 15 11 16 18 18 17 19 18 18 18 18 18 22 21 21 20 19 21 42 47 36 31 31 144 201 253 327 360 370 383 396 404 416 424 441 454 447 433 417 406 352 255 274 330 370 381 389 404 413 422 472 555 635 726 773 809 845 855 859 856 840 826 805 808 910 982 971 1010 1064 1104 1124 1150 1170 1186 1171 1122 1052 1003 995 1016 1025 1033 1043 1069 1078 1074 1064 1054 1034 915 864 832 805 795 791 807 830 859 890 916 936 952 968 1067 1163 1093 1028 1041 915 834 815 784 820 797 780 734 582 559 565 664 692 723 880 906 846 754 793 803 796 675 692 730 729 699 589 449 366 283 232 269 374 392 438 492 446 413 513 583 616 630 632 615 624 609 607 606 609 616 657 681 600 562 534 543 675 710 707 666 656 683 744 771 839 954 975 894 783 755 717 597 526 554 695 729 717 687 653 574 493 655 836 648 654 854 840 991 998 996 975 983 990 977 989 986 993 999 992 928 799 773 756 737 546 450 538 634 621 688 253 245 245 258 262 245 246 265 293 328 369 393 463 568 331 279 279 279 282 289 287 297 319 346 402 566 622 614 610 582 662 687 702 724 743 843 1174 1175 2037 2529 2711 2790 2558 2467 3000 3472 3545 3575 3710 3834 3862 3895 4008 4132 4184 4202 4229 4250 4421 4602 5073 5191 5029 4988 4986 4909 4721 4498 4365 4245 4211 4185 4158 4112 4026 3936 3875 3755 3621 3508 3429 3309 3091 3240 3263 3260 3290 3223 3142 3097 3144 3240 3407 3506 3546 3564 3542 3417 3170 2689 2280 1811 1699 1680 1666 1652 1646 1641 1659 1652 1669 1675 1800 1944 2312 2691 3003 3483 3854 4364 5100 5810 6354 6959 7494 7972 8760 9143 9210 9169 9037 9022 9197 9341 9494 9551 9512 9438 9418 9410 9395 9369 9335 9257 9032 8925 8908 8957 8908 8796 8743 8670 8454 7991 7932 7949 7926 7851 7710 7450 7475 7470 7431 7310 7065 6622 6257 5895 5074 4773 4753 4763 4704 4750 4683 4638 4584 4512 4444 4365 4298 4305 4304 4270 4236 4227 4222 4231 4269 4041 3758 3772 3714 3299 3048 3377 3303 3345 3418 3486 3889 4530 4900 5181 5547 6081 6847 7509 7864 7994 8182 8399 8851 9137 9301 9465 10039 10258 10514 10550 10306 9944 9488 9096 8747 8293 8251 8206 7694 7325 6984 6216 6663 7204 7811 8305 8820 9283 9835 10359 11011 11485 11797 11926 12178 12298 12381 11945 11720 11068 10977 11275 11403 11367 11839 12285 12359 12306 13018 13707 13695 13222 13098 13025 13338 13266 12641 12005 11400 11019 10648 10368 10253 10585 10551 9705 9104 8570 7901 7436 6965 7165 7314 7515 8159 8074 7358 6686 5838 5236 4681 3874 3270 2926 2970 2972 3231 4390 4522 4245 4092 3765 3669 3251 2984 2807 2780 2753 2636 2695 2536 2398 2323 2298 2314 2325 2345 2303 2318 2214 2144 2140 2110 2019 1932 1941 1953 1944 1930 1959 2086 2018 1823 1869 1895 1915 1897 1872 1847 1773 1770 1888 1910 1981 2195 2328 2343 2308 2313 2360 2396 0 0 0 0 0 0 0 0 0 0 0 0 0 0 0 0 0 0 0 0 0 0 0 0 0 0 0 0 0 0 0 0 0 0 0 0 0 0 0 0 0 0 0 0 0 0 0 0 0 0 0 0 0 0 0 0 0 0 0 0 0 0 0 0 0 0 0 0 0 0 0 0 0 0 0 0 0 0 0 0 0 0 0 0 0 0 0 0 0 0 0 0 0 0 0 0 0 0 0 0 0 0 0 0 0 0 0 0 0 0 0 0 0 0 0 0 0 0 0 0 0 0 0 0 0 0 0 0 0 0 0 0 0
0 4 6 8 8 3 0 6 8 8 6 9 15 20 21 22 10 18 18 19 19 19 18 18 18 21 22 22 23 22 20 22 42 51 36 31 31 31 107 192 287 329 367 381 388 394 400 406 407 407 404 391 375 339 233 323 372 377 381 383 391 402 409 415 426 507 618 687 745 800 855 869 872 870 860 849 845 838 869 980 976 975 1037 1091 1117 1149 1170 1186 1176 1142 1099 1025 1001 999 1023 1037 1047 1060 1065 1071 1067 1057 1046 997 898 836 791 776 774 754 773 806 855 901 924 936 947 964 1127 1110 1030 1015 949 830 742 759 788 777 794 743 655 532 559 631 665 693 771 865 858 709 704 707 807 795 712 513 359 338 233 228 220 219 226 312 356 379 399 405 406 414 461 524 608 595 614 609 610 609 610 610 610 592 593 630 621 601 537 524 580 669 685 671 648 656 692 722 725 833 920 891 750 710 678 591 535 525 602 695 710 688 662 627 492 644 734 654 699 866 934 987 996 1000 992 997 1000 991 989 1000 1007 996 988 792 779 764 757 750 726 674 418 477 424 441 245 245 246 257 267 276 268 283 300 368 388 406 434 481 392 377 367 301 296 288 286 316 339 379 437 557 615 623 625 633 657 680 716 756 831 1357 1853 1972 2254 2625 2855 2977 3069 3213 3344 3589 3867 3901 4016 4125 4160 4169 4258 4355 4455 4436 4443 4468 4521 4573 4781 4954 4925 4872 4806 4736 4583 4446 4356 4277 4255 4225 4188 4155 4029 3847 3741 3630 3498 3411 3280 3326 3381 3356 3298 3284 3354 3262 3148 3077 3053 3113 3193 3336 3369 3425 3417 3310 3072 2777 2434 1908 1699 1681 1666 1663 1645 1625 1620 1640 1667 1698 1865 2063 2395 2353 2508 3014 3440 4059 4845 5343 5808 6303 6812 7424 8257 8911 9547 9619 9549 9559 9702 9808 10020 9917 9856 9826 9807 9822 9782 9764 9689 9304 9123 9020 8998 9096 9020 8967 9015 9141 9115 8944 9028 8975 8897 8640 8316 8115 8267 8270 8059 7901 7598 6962 6533 5869 5333 5589 5550 5386 5554 5392 5260 5157 5059 4894 4859 4845 4792 4734 4697 4666 4628 4550 4419 4356 4184 4039 3951 4019 4071 4030 3833 3706 3722 3965 4033 3799 3332 3868 4144 4440 5072 5728 6296 7049 7410 7574 7556 7841 8187 8530 8951 9233 9674 10008 10254 10748 10899 10613 10231 9937 9722 9638 9657 9202 8296 7659 7293 6622 6503 7035 7539 7846 8212 8722 9081 9559 10144 10737 11085 10999 11317 11886 12674 12869 12896 12787 12208 11896 12210 11810 12216 12846 13220 13363 13200 13752 14107 14214 14161 14079 13905 13586 13043 12424 11937 11366 11192 11118 10983 11402 10581 10030 9430 8932 8518 7818 7674 7872 8069 8071 8588 8437 7666 6909 6043 5380 4981 4511 3782 3085 3151 3298 3966 4998 5506 5379 5019 4757 4474 4132 3858 3536 3527 3508 3134 2654 2658 2671 2594 2487 2472 2369 2404 2316 2590 2592 2601 2581 2327 2010 2051 2106 2139 2164 2057 2086 2191 2052 1917 1948 1964 1965 1923 1895 1859 1805 1770 1730 1846 1906 2081 2306 2409 2489 2563 2578 2593 2722 2648 2623 2665 2697 2698 2648 2597 2572 0 0 0 0 0 0 0 0 0 0 0 0 0 0 0 0 0 0 0 0 0 0 0 0 0 0 0 0 0 0 0 0 0 0 0 0 0 0 0 0 0 0 0 0 0 0 0 0 0 0 0 0 0 0 0 0 0 0 0 0 0 0 0 0 0 0 0 0 0 0 0 0 0 0 0 0 0 0 0 0 0 0 0 0 0 0 0 0 0 0 0 0 0 0 0 0 0 0 0 0 0 0 0 0 0 0 0 0 0 0 0 0 0 0 0 0 0 0 0 0 0 0 0 0
0 11 12 12 12 6 4 0 5 11 13 15 20 32 32 30 15 20 20 20 20 20 20 21 23 23 23 23 23 22 22 22 40 49 36 31 31 31 93 190 313 334 363 376 383 388 389 387 388 390 385 372 346 294 233 349 370 376 382 386 390 399 405 411 422 459 556 652 712 772 841 868 877 878 871 865 856 846 851 975 1020 1006 985 1026 1101 1141 1169 1184 1171 1145 1108 1039 1008 991 1019 1037 1049 1063 1067 1074 1069 1062 1053 1040 949 843 788 765 738 716 736 780 815 854 911 969 962 920 1027 1075 1036 938 908 831 722 742 758 766 771 741 661 560 541 600 638 680 687 789 815 670 602 635 727 770 739 432 232 223 209 205 213 248 312 326 355 374 386 402 417 431 453 474 525 583 599 613 619 624 624 612 610 585 582 615 622 625 561 524 536 583 657 658 661 638 660 680 706 758 826 824 724 692 655 588 543 514 560 648 688 686 665 634 492 601 678 713 654 671 867 978 993 1002 1004 1013 992 973 979 1008 1001 985 789 778 767 755 751 743 721 669 447 395 379 286 245 245 246 256 266 280 287 299 310 374 392 412 442 440 416 390 382 375 385 368 350 353 358 391 508 614 615 626 636 642 659 674 720 980 1489 1895 2302 2466 2420 2732 2992 3172 3329 3519 3734 3777 3937 4049 4187 4342 4379 4318 4363 4442 4545 4635 4629 4589 4591 4589 4652 4701 4744 4736 4710 4657 4515 4428 4362 4311 4286 4252 4179 4140 3963 3756 3622 3634 3654 3583 3526 3509 3437 3373 3296 3299 3411 3291 3195 3109 2857 2984 3070 3120 3131 3230 3223 3115 2977 2757 2455 1920 1698 1686 1673 1657 1626 1618 1616 1612 1648 1698 1837 2010 2140 2563 2955 3219 3241 3536 3903 4359 5140 5667 6428 7018 7983 8590 9562 9846 10000 10087 10149 10300 10536 10320 10100 10048 10150 10277 10238 10037 9692 9259 9060 8948 8776 8846 8893 8919 8943 9061 9160 9309 9475 9462 9241 9122 8744 8553 8724 8774 8465 8154 7794 7117 6580 6203 6243 6427 6243 5861 6108 6030 5944 5872 5726 5481 5373 5395 5290 5134 5023 4891 4929 4875 4625 4362 4251 4260 4171 4054 4118 4136 4118 4024 4105 4510 4766 4571 4248 3388 3702 4011 4748 5369 5801 6548 6985 7174 7075 7326 7560 8003 8397 8818 9325 9512 9844 10425 10812 11013 10808 10658 10372 10304 10141 9498 8384 8161 7733 7073 6777 6921 7277 7522 7855 8340 8604 8945 9610 10080 10494 10440 10921 11620 12222 12287 12401 12502 13068 12607 12549 12514 12447 13064 13318 13446 13568 13643 13677 13848 13985 14217 14554 13820 13336 12856 12428 11999 11728 11656 11783 11952 11038 10272 9548 8890 8477 7794 7877 8142 8434 8661 8679 8621 7763 7037 6327 5769 5395 5027 4499 3538 3300 3563 4177 5095 5849 6150 5750 5531 5166 4797 4475 4155 3994 3882 3154 3198 3331 3217 2869 2765 2542 2416 2459 2409 2579 2666 2562 2376 2200 2175 2407 2353 2340 2301 2197 2190 2261 2066 1941 1989 1997 1951 1929 1921 1883 1817 1807 1839 1793 1813 1851 2051 2295 2479 2531 2611 2755 2785 2808 2785 2802 2851 2788 2721 2708 2686 2741 0 0 0 0 0 0 0 0 0 0 0 0 0 0 0 0 0 0 0 0 0 0 0 0 0 0 0 0 0 0 0 0 0 0 0 0 0 0 0 0 0 0 0 0 0 0 0 0 0 0 0 0 0 0 0 0 0 0 0 0 0 0 0 0 0 0 0 0 0 0 0 0 0 0 0 0 0 0 0 0 0 0 0 0 0 0 0 0 0 0 0 0 0 0 0 0 0 0 0 0 0 0 0 0 0 0 0 0 0 0 0 0 0 0 0 0 0 0 0 0 0 0 0
0 0 13 16 17 12 8 4 0 4 18 27 32 42 44 32 9 17 17 19 19 19 19 22 21 21 23 23 22 22 22 22 41 49 38 31 31 31 61 130 283 322 351 372 377 382 380 375 369 377 373 365 332 275 235 339 367 373 380 384 389 395 401 406 417 426 483 608 683 722 821 856 873 880 881 879 872 857 852 945 1009 1045 1026 1027 1042 1117 1160 1176 1167 1145 1118 1055 981 988 1017 1035 1048 1070 1075 1076 1075 1066 1059 1047 1022 909 791 768 747 716 716 787 792 805 837 931 995 938 902 963 969 886 866 820 726 707 744 743 742 730 671 586 481 554 593 663 676 667 745 650 554 527 630 649 667 237 207 198 193 187 220 282 299 324 356 371 376 396 420 433 450 463 484 553 610 609 619 625 641 613 579 538 564 569 566 608 569 535 524 543 599 642 672 632 629 678 692 719 761 763 705 674 638 586 549 510 511 568 630 668 662 636 492 541 595 671 678 775 834 968 988 1008 1014 1015 996 976 991 997 943 774 773 763 755 746 743 736 696 518 515 423 328 245 245 245 246 256 258 256 301 311 347 379 394 412 438 434 414 400 396 404 433 439 400 497 484 419 544 605 614 630 639 644 657 670 727 1166 1772 2231 2573 2695 2637 2841 3117 3274 3483 3777 4110 4210 4187 4262 4293 4329 4381 4472 4455 4483 4603 4680 4697 4659 4630 4613 4613 4633 4665 4673 4658 4619 4479 4407 4343 4301 4290 4262 4149 4031 3862 3641 3791 3803 3750 3687 3676 3595 3472 3375 3284 3307 3350 3295 3211 3127 2958 2670 2852 2941 2974 3009 2995 2925 2834 2654 2421 2031 1728 1687 1677 1647 1630 1621 1612 1604 1592 1681 1793 1962 2353 2777 3247 3591 3798 3946 4388 4635 4632 5760 6527 7110 7787 8483 9328 9875 10098 10266 10450 10650 10769 10660 10461 10357 10467 10334 10198 9982 9613 9238 9002 8820 8723 8745 8771 8781 8916 9031 9103 9481 9618 9748 9607 9588 9432 9285 9241 9070 8654 8300 7735 7314 6766 6928 7121 7290 7096 6695 6879 6801 6568 6472 6405 6299 6047 5896 5722 5651 5488 5308 5269 5181 4943 4685 4839 4714 4495 4320 4254 4416 4434 4321 4241 4557 4984 4849 4597 4165 3510 3529 4310 5028 5323 5833 6412 6627 6650 6860 7120 7561 7853 8240 8779 8964 9475 10165 10517 10845 11170 11235 11122 11033 10680 9768 9028 8572 8067 7550 7128 6819 6998 7230 7609 7939 8209 8596 9092 9609 9910 9939 10589 11387 11638 11592 11668 11923 12501 12854 12553 12479 12407 12560 12691 12935 13040 13242 13341 13364 13366 13496 13921 14106 13729 13206 12922 12567 12395 12218 12538 11717 11007 10563 9676 8915 8379 8204 8223 8654 9000 9054 8749 8623 7904 7420 6846 6246 5982 5352 4798 3906 3252 3608 3860 4696 5372 6062 6350 6047 5767 5494 5207 4926 4423 3601 3364 3733 3804 3719 3476 3053 2587 2461 2550 2507 2725 2555 2385 2304 2382 2483 2611 2549 2534 2494 2309 2368 2371 2059 1942 2027 2053 2048 2057 2001 1945 1834 1845 1894 1903 1823 1789 1789 1919 2234 2125 2233 2453 2693 2908 2913 2952 2928 2762 2693 2703 2721 2806 0 0 0 0 0 0 0 0 0 0 0 0 0 0 0 0 0 0 0 0 0 0 0 0 0 0 0 0 0 0 0 0 0 0 0 0 0 0 0 0 0 0 0 0 0 0 0 0 0 0 0 0 0 0 0 0 0 0 0 0 0 0 0 0 0 0 0 0 0 0 0 0 0 0 0 0 0 0 0 0 0 0 0 0 0 0 0 0 0 0 0 0 0 0 0 0 0 0 0 0 0 0 0 0 0 0 0 0 0 0 0 0 0 0 0 0 0 0 0 0 0 0 0
0 0 0 0 22 17 15 13 12 6 0 26 50 49 48 31 9 17 17 17 19 19 21 21 21 21 24 24 23 23 23 23 39 46 38 31 31 31 31 73 197 285 320 352 373 378 372 366 370 360 336 327 325 309 233 313 353 369 376 380 386 392 397 395 405 411 421 534 639 734 790 835 859 868 873 877 885 890 897 910 975 1024 1051 1040 1044 1114 1141 1155 1166 1147 1123 1076 1019 980 1013 1035 1055 1083 1083 1082 1079 1077 1070 1060 1047 999 856 793 782 737 716 719 758 768 777 812 884 965 893 870 894 895 788 788 736 679 700 716 704 694 653 597 481 508 534 605 675 618 646 641 501 343 238 221 178 178 184 183 183 184 228 234 244 293 333 366 368 388 411 424 437 446 461 493 521 542 601 610 611 616 541 511 506 521 539 542 552 540 514 517 532 578 611 583 560 589 656 687 718 721 690 661 627 590 566 542 487 486 536 619 645 639 501 505 672 730 873 830 967 998 1008 1011 1015 1011 1011 1013 1005 857 759 730 752 748 742 732 696 690 594 426 548 462 307 245 245 245 245 245 245 254 326 354 365 380 404 419 440 422 418 414 412 427 445 452 461 625 620 618 555 613 620 634 643 646 660 666 773 1186 1589 2184 2606 2809 2894 3020 3160 3416 3723 4092 4594 4768 4681 4605 4563 4625 4669 4613 4500 4561 4701 4741 4772 4802 4791 4726 4614 4593 4593 4603 4508 4499 4382 4373 4270 4238 4143 4010 3867 3897 3775 3829 3838 3802 3760 3730 3704 3629 3468 3331 3272 3334 3382 3348 3282 3178 3041 2857 2471 2577 2631 2651 2607 2524 2453 2339 2247 2234 1982 1765 1692 1646 1630 1614 1610 1598 1583 1684 1825 2076 2493 3024 3467 3981 4472 4842 5337 5642 5747 5448 6361 6961 7780 8575 9434 9995 10177 10380 10612 10805 10922 11010 11005 10873 10571 10304 10155 9883 9550 9233 8995 8796 8710 8714 8747 8845 9042 9139 9236 9488 9731 9847 9840 9843 9907 9818 9716 9416 8934 8513 8397 7758 7800 8095 8392 8496 8244 8002 8006 7927 7882 7786 7608 7455 7234 7018 6670 6354 5983 5823 5698 5506 5322 5242 5467 5384 5075 4814 4709 4791 4916 4772 4528 4363 4691 4924 4926 4460 4214 3754 4023 4482 4704 5057 5402 5872 5837 6139 6528 6953 7255 7565 8082 8355 8784 9491 9990 10302 10788 11050 11343 11491 10989 10400 9727 9245 8749 7937 7786 7349 7147 7211 7265 7637 7851 8152 8532 8889 9094 9727 10275 10688 10941 10906 10798 11295 11659 11989 12185 11954 11991 11947 11970 11954 12370 12366 12440 12962 12967 13044 13317 13654 14265 13860 13549 13376 13367 13142 12716 11872 11426 10928 10386 9568 9090 9229 8933 9065 9667 9845 9402 8890 8415 8021 7406 6872 6271 5479 4393 3686 3262 3546 4261 5187 4696 5823 6835 6727 6541 6176 5912 5730 4751 3676 4098 4466 4377 4347 3865 2874 2572 2675 2690 2770 2846 2738 2433 2669 2692 2588 2654 2676 2654 2460 2477 2557 2411 2094 2014 2061 2402 2449 2391 2380 2384 2225 2239 2250 2546 2524 2049 1975 1961 1798 1881 1919 1796 2341 2580 2703 2728 2661 2577 2503 2530 2603 2800 2950 0 0 0 0 0 0 0 0 0 0 0 0 0 0 0 0 0 0 0 0 0 0 0 0 0 0 0 0 0 0 0 0 0 0 0 0 0 0 0 0 0 0 0 0 0 0 0 0 0 0 0 0 0 0 0 0 0 0 0 0 0 0 0 0 0 0 0 0 0 0 0 0 0 0 0 0 0 0 0 0 0 0 0 0 0 0 0 0 0 0 0 0 0 0 0 0 0 0 0 0 0 0 0 0 0 0 0 0 0 0 0 0 0 0 0 0 0 0 0 0 0 0
0 0 0 0 27 24 18 24 24 20 12 0 43 22 22 22 6 18 17 17 0 23 22 22 22 22 26 24 24 23 23 23 39 47 37 31 31 31 31 31 116 216 265 353 373 373 365 367 358 321 300 298 306 311 281 247 339 369 375 380 384 390 392 380 390 403 418 475 581 669 750 812 851 864 870 875 881 888 895 906 942 1001 1043 1059 1074 1101 1123 1141 1164 1151 1127 1085 1041 976 1004 1033 1076 1094 1092 1086 1083 1084 1080 1071 1052 1009 910 879 862 813 744 717 735 751 758 775 798 870 878 856 847 870 806 769 731 680 667 679 673 663 609 579 497 468 488 554 621 615 588 620 456 198 195 191 178 178 178 229 185 209 220 261 305 320 349 371 377 384 397 411 422 429 434 467 482 492 502 511 507 493 488 487 483 487 504 525 549 587 510 503 498 498 502 517 522 536 567 656 680 688 681 652 622 593 577 559 513 480 494 563 626 637 511 456 689 902 962 982 844 982 1002 1010 1010 1016 1008 1008 997 803 728 736 746 739 728 643 572 605 440 415 503 473 253 245 245 245 250 250 254 283 331 393 436 423 422 426 449 425 426 423 419 426 457 477 518 620 625 622 543 612 622 637 648 649 662 678 909 1168 1376 1759 2535 2912 3062 3230 3426 3534 3897 4316 4769 5068 5002 4835 4705 4717 4762 4721 4611 4659 4740 4826 4844 4879 4844 4773 4636 4593 4593 4568 4542 4532 4510 4461 4466 4511 4505 4430 4414 4200 4014 3883 3816 3755 3718 3685 3677 3544 3417 3275 3309 3415 3441 3432 3367 3249 3106 2947 2697 2289 2320 2339 2298 2246 2179 2042 1973 2001 2001 1828 1697 1638 1607 1598 1605 1595 1582 1675 1814 2111 2581 3141 3619 4315 4978 5528 5907 6282 6392 6346 6146 7121 7845 8558 9373 10020 10214 10398 10642 10837 10906 10893 10896 10816 10550 10244 10052 9723 9409 9126 8871 8754 8680 8711 8786 8937 9136 9286 9423 9593 9828 9962 9959 9936 9978 9988 9884 9595 9144 9275 8925 8850 8861 9030 9137 9161 9014 8860 8744 8743 8700 8645 8584 8362 8183 7912 7538 7088 6635 6157 5961 5922 5571 5602 5815 5788 5532 5215 5224 5248 5207 4866 4713 4646 4423 4547 4675 4654 4356 4044 3839 4171 4350 4564 4830 5134 5188 5654 6060 6625 6913 7206 7684 7843 8350 8980 9558 9955 10453 10766 11065 11518 11528 10845 10403 9938 9281 8439 8008 7766 7624 7364 7318 7535 7673 7850 8241 8421 8914 9396 9772 10089 10366 10394 10363 10735 10935 11246 11377 11419 11556 11532 11488 11486 11888 11840 12050 12420 12390 12791 13022 13390 13846 14298 14156 14048 14156 13552 12895 12240 11801 11395 10807 10400 9956 9813 9593 9730 10245 10289 9765 9140 8676 8153 7518 6920 6228 5020 4227 4214 3705 4275 4869 5991 5338 5815 6857 7223 7031 6626 6425 6017 4921 4222 4312 4744 4708 4574 3715 2842 2850 2807 2800 2931 2909 2744 2718 2850 2886 2720 2633 2559 2525 2458 2573 2636 2424 2158 2083 2231 2556 2767 2783 2759 2856 2497 2500 2596 2771 2742 2637 2563 2504 2464 2411 2470 2255 1816 2196 2468 2588 2573 2483 2328 2383 2481 2602 2730 0 0 0 0 0 0 0 0 0 0 0 0 0 0 0 0 0 0 0 0 0 0 0 0 0 0 0 0 0 0 0 0 0 0 0 0 0 0 0 0 0 0 0 0 0 0 0 0 0 0 0 0 0 0 0 0 0 0 0 0 0 0 0 0 0 0 0 0 0 0 0 0 0 0 0 0 0 0 0 0 0 0 0 0 0 0 0 0 0 0 0 0 0 0 0 0 0 0 0 0 0 0 0 0 0 0 0 0 0 0 0 0 0 0 0 0 0 0 0 0 0 0
0 0 0 0 29 27 22 27 32 65 57 24 0 9 13 12 4 22 22 0 24 24 0 25 25 27 26 25 25 24 24 23 36 44 36 31 31 31 31 31 92 186 243 362 367 367 366 363 325 297 291 285 272 243 273 253 310 368 374 379 383 390 384 362 381 397 414 456 544 622 714 792 839 861 867 872 878 885 891 903 918 976 1034 1051 1066 1085 1109 1143 1158 1153 1130 1092 1052 998 989 1025 1071 1102 1098 1091 1088 1089 1090 1085 1050 1003 954 932 893 852 793 717 729 743 731 751 768 788 819 814 794 828 804 742 718 676 609 646 647 639 606 586 561 455 511 545 604 603 562 546 309 170 174 172 187 195 304 316 313 312 256 284 312 345 357 373 379 384 391 401 411 420 426 442 453 462 467 472 473 476 479 478 477 481 483 513 543 560 532 488 484 482 481 482 497 502 507 551 612 653 667 642 613 593 590 574 536 494 464 512 608 641 505 433 581 872 951 1010 924 1007 1005 997 1009 1004 988 982 929 737 731 739 738 705 578 508 508 575 534 326 454 436 245 245 245 245 249 263 271 288 330 424 448 449 455 469 481 471 455 442 431 431 472 509 610 619 626 625 611 607 623 644 653 656 665 701 873 1088 1213 1673 2582 2951 3169 3493 3674 3841 4164 4504 4901 5324 5292 5164 4925 4831 4838 4825 4684 4785 4823 4951 4945 4916 4858 4776 4652 4593 4593 4577 4566 4558 4546 4547 4579 4631 4692 4731 4639 4508 4226 3906 3788 3665 3665 3603 3528 3415 3287 3237 3430 3497 3536 3567 3506 3402 3217 3031 2793 2245 2020 2048 2027 1945 1814 1737 1778 1819 1844 1768 1690 1629 1593 1585 1593 1587 1582 1665 1804 2156 2751 3229 3752 4519 5251 5837 6481 6758 6925 6924 6667 6980 7846 8423 9153 10011 10209 10415 10599 10776 10842 10734 10694 10641 10458 10176 9910 9481 9212 8968 8756 8667 8659 8727 8814 8948 9225 9442 9603 9761 9906 10039 10081 10076 10048 10064 10058 9899 9811 9989 9705 9567 9423 9427 9608 9654 9634 9468 9408 9307 9437 9418 9291 9331 9242 9010 8615 8203 7430 6814 6544 6298 5989 6215 6441 6321 5958 5560 5643 5587 5392 5164 5085 4984 4746 4556 4524 4631 4541 4312 3485 3754 3896 3998 4132 4366 4567 5064 5582 6121 6583 6879 7256 7447 7845 8528 9118 9504 9974 10255 10535 11198 11575 11464 10810 10446 10003 9165 8757 8298 7892 7728 7454 7360 7540 7691 7954 8249 8593 8907 9147 9563 9920 9870 9874 10209 10307 10420 10803 10585 11177 11111 10979 11129 11390 11442 11755 11982 12148 12457 12699 12922 13296 13825 13922 14244 14581 13912 13288 12628 12243 11782 11288 10904 10595 10304 10209 10417 10505 10372 9937 9172 8657 8056 7477 6854 5909 4935 5142 4838 3834 4821 5521 6760 6169 5599 6781 7729 7594 7152 6846 6372 5474 4063 4988 5243 5103 4990 3766 2918 3003 2982 2894 3174 3049 2857 3137 3136 3319 3017 2940 2812 2816 2669 2659 2724 2492 2232 2085 2277 2482 2657 2877 3138 3375 3123 3107 3267 3220 3183 3128 3047 2957 2868 2823 2732 2571 2301 1939 2151 2408 2453 2394 2068 2119 2333 2511 2580 2655 0 0 0 0 0 0 0 0 0 0 0 0 0 0 0 0 0 0 0 0 0 0 0 0 0 0 0 0 0 0 0 0 0 0 0 0 0 0 0 0 0 0 0 0 0 0 0 0 0 0 0 0 0 0 0 0 0 0 0 0 0 0 0 0 0 0 0 0 0 0 0 0 0 0 0 0 0 0 0 0 0 0 0 0 0 0 0 0 0 0 0 0 0 0 0 0 0 0 0 0 0 0 0 0 0 0 0 0 0 0 0 0 0 0 0 0 0 0 0 0 0
0 0 0 0 3 18 22 32 45 50 50 42 26 3 0 3 0 0 23 26 26 25 24 0 26 33 26 26 25 25 24 23 30 42 35 31 31 31 31 31 126 171 249 310 344 350 349 344 336 304 305 297 276 259 234 257 300 352 370 375 380 391 394 302 375 392 407 423 484 574 678 762 823 858 863 867 874 879 886 896 904 914 998 1035 1046 1030 1099 1123 1134 1134 1124 1103 1049 1008 970 991 1019 1104 1103 1098 1098 1100 1103 1107 1078 1033 988 959 928 895 849 777 690 699 694 727 746 753 761 766 771 788 774 723 697 678 606 573 616 621 617 592 558 304 507 522 541 499 398 191 170 162 158 162 177 309 327 335 349 368 319 343 389 416 413 402 391 388 390 396 406 410 413 419 426 437 443 450 458 466 469 470 469 472 475 477 483 483 484 488 479 476 474 475 479 481 481 482 497 570 623 624 601 600 617 600 553 504 458 503 684 651 503 433 564 991 871 741 978 998 970 988 993 989 969 836 739 713 728 733 669 557 508 508 517 556 447 279 440 245 245 248 250 246 245 256 267 278 325 444 464 478 518 554 559 553 527 488 486 487 610 615 617 622 628 630 623 623 637 654 665 670 689 769 1026 1049 1208 1614 2417 3123 3356 3744 4050 4238 4510 4746 4865 5088 5214 5260 5250 5149 5020 4897 4767 4870 4945 4937 4986 4975 4920 4831 4761 4640 4593 4593 4590 4583 4602 4638 4749 5033 5134 5125 4860 4655 4390 3996 3800 3597 3530 3455 3364 3154 3239 3356 3517 3676 3759 3870 3812 3650 3392 3130 2842 2336 1984 1781 1698 1699 1678 1672 1688 1697 1697 1686 1662 1613 1584 1572 1576 1568 1576 1670 1869 2267 2953 3423 3808 4591 5281 5887 6667 7244 7560 7635 7624 7405 7797 8368 9000 9749 10208 10429 10571 10643 10665 10604 10512 10403 10205 9951 9642 9185 8995 8830 8689 8647 8671 8770 8905 9065 9431 9656 9844 10043 10145 10190 10250 10175 10113 10117 10264 10331 10224 10204 10161 10074 10093 10049 10009 9956 9942 9870 9798 9712 9504 9508 9625 9761 9523 9399 9069 8781 8523 8006 7609 7332 6875 6976 7055 6976 6654 6291 6227 6020 5851 5792 5639 5457 5296 5082 4874 4665 4763 4907 4350 4057 3832 3748 3626 3797 4066 4416 4890 5528 5818 6188 6585 6841 7154 7881 8381 8791 9149 9361 9698 10398 11139 11345 11425 11051 10554 9909 9317 9105 8790 8503 8047 7786 7530 7524 7658 7841 8065 8200 8382 8658 9044 9166 9367 9460 9614 9758 10032 9958 10439 10642 10204 10625 10711 10795 11093 11285 11422 11936 12466 12534 12725 12948 13112 13421 13854 14321 13800 13157 12866 12463 12083 11450 11323 10991 10960 10971 10886 10323 9717 9159 8900 8479 7441 6814 5705 6030 5783 5368 4705 5379 6145 7523 7125 6688 6950 7996 8316 7763 7206 6228 4884 5005 6047 6228 5803 4939 3886 3206 3188 3119 3261 3683 3327 3481 4103 4153 3896 3918 3826 3570 3456 3147 3051 2904 2698 2524 2294 2266 2438 2598 2746 2999 3465 3832 3884 3897 4223 4278 4238 4172 4018 3743 3445 3203 2992 2746 2438 2231 1981 2066 2030 2073 2044 2141 2415 2478 2509 0 0 0 0 0 0 0 0 0 0 0 0 0 0 0 0 0 0 0 0 0 0 0 0 0 0 0 0 0 0 0 0 0 0 0 0 0 0 0 0 0 0 0 0 0 0 0 0 0 0 0 0 0 0 0 0 0 0 0 0 0 0 0 0 0 0 0 0 0 0 0 0 0 0 0 0 0 0 0 0 0 0 0 0 0 0 0 0 0 0 0 0 0 0 0 0 0 0 0 0 0 0 0 0 0 0 0 0 0 0 0 0 0 0 0 0 0 0 0 0 0
0 0 0 0 0 12 22 35 42 43 43 40 31 16 8 3 0 23 26 26 26 26 25 0 27 30 27 26 25 25 25 24 29 35 35 31 31 31 31 31 119 220 318 339 358 365 338 336 336 323 315 308 286 271 258 191 279 324 366 371 381 388 334 309 378 393 406 418 451 537 639 715 796 850 859 864 869 875 882 889 897 906 972 1004 1022 1003 1049 1098 1103 1105 1106 1088 1032 1004 970 968 973 1053 1106 1111 1108 1110 1116 1117 1096 1053 1010 984 954 910 863 804 685 654 660 653 728 732 740 744 752 721 730 698 664 664 606 555 560 590 604 586 552 256 500 479 345 294 178 171 165 158 158 166 191 337 352 349 356 363 367 381 433 439 435 429 409 394 392 400 400 405 408 411 416 424 431 436 447 458 461 463 464 466 469 471 475 475 477 484 481 474 469 468 471 472 475 474 482 487 519 555 552 597 622 612 548 523 503 406 689 653 520 433 519 925 846 853 826 975 791 987 977 974 939 828 669 697 707 677 607 540 508 508 521 539 496 371 245 247 261 259 246 245 245 247 245 259 335 485 485 549 556 562 566 566 561 578 611 613 617 621 624 628 631 634 632 640 653 663 676 707 731 914 1088 1085 1234 1695 2616 3244 3509 3997 4336 4583 4593 4786 4883 5021 5096 5148 5144 5087 5048 4973 4834 4870 4939 4983 4991 4949 4913 4852 4777 4719 4651 4614 4613 4599 4622 4690 4888 5124 5245 5128 4883 4642 4357 3951 3777 3555 3366 3274 3210 3121 3314 3439 3653 3800 3916 3984 3944 3806 3467 3150 2800 2316 1963 1766 1698 1641 1602 1647 1666 1674 1672 1664 1644 1610 1583 1568 1558 1549 1564 1666 1830 2336 3076 3489 3829 4472 5123 5794 6653 7275 7968 8127 8140 8135 7921 8183 8650 9611 10188 10421 10540 10548 10508 10428 10365 10197 10012 9743 9431 9039 8834 8759 8662 8662 8722 8835 8993 9238 9617 9912 10073 10218 10301 10335 10276 10201 10151 10176 10276 10354 10288 10275 10258 10118 10107 10117 10218 10152 9994 10023 9858 9744 9595 9507 9469 9480 9453 9219 8879 8577 8379 7995 7632 7386 7154 7250 7364 7385 7134 6817 6519 6388 6386 6269 6092 5908 5700 5584 5376 4998 4834 5006 4944 4691 4359 4364 4118 3964 3760 3845 4189 4844 5156 5570 6051 6391 6731 7373 7764 8073 8495 8817 9032 10057 10652 10807 11091 11337 11291 10502 10154 9709 9876 9667 9244 8289 7999 7802 7564 7651 7783 7964 8075 8205 8370 8529 8862 8958 9062 9344 9511 9622 9933 10019 10115 10209 10325 10529 10748 10956 11328 11840 12322 12331 12368 12270 12620 12857 13612 13917 14217 13607 13300 13412 13188 12006 11889 11510 11527 11308 10967 10244 9759 9447 8952 8483 7592 6743 6883 6707 6317 6063 5350 5496 6268 7654 8019 7322 7006 8184 8796 7853 7003 6031 5201 5963 6694 6275 5593 4571 3851 3292 3343 3545 3903 4175 3725 3753 4512 4956 4833 4676 4288 4031 3804 3603 3548 3258 2862 2644 2350 2295 2269 2236 2566 2861 3333 3914 4252 4410 4808 4982 5073 5048 4838 4573 4031 3773 3577 3083 2813 2626 2378 2364 2308 2361 2244 2038 2278 2389 2441 0 0 0 0 0 0 0 0 0 0 0 0 0 0 0 0 0 0 0 0 0 0 0 0 0 0 0 0 0 0 0 0 0 0 0 0 0 0 0 0 0 0 0 0 0 0 0 0 0 0 0 0 0 0 0 0 0 0 0 0 0 0 0 0 0 0 0 0 0 0 0 0 0 0 0 0 0 0 0 0 0 0 0 0 0 0 0 0 0 0 0 0 0 0 0 0 0 0 0 0 0 0 0 0 0 0 0 0 0 0 0 0 0 0 0 0 0 0 0 0 0
0 0 0 0 0 12 21 32 37 36 37 32 29 20 15 9 0 26 26 26 26 26 26 26 31 30 27 27 26 26 26 25 33 31 0 31 31 31 31 31 66 210 299 320 352 347 318 324 326 326 315 304 288 277 266 163 260 300 341 361 380 277 370 378 384 397 406 419 437 515 605 667 751 826 853 860 866 870 875 882 888 899 914 973 997 982 974 1051 1059 1065 1069 1058 1024 997 965 937 938 1002 1067 1107 1112 1116 1120 1120 1101 1066 1024 1001 977 938 864 805 670 626 610 602 643 676 700 713 736 717 673 678 638 616 597 561 484 549 583 570 540 255 459 451 209 178 169 162 161 158 159 168 201 371 409 430 444 440 438 435 448 450 446 435 424 405 403 404 408 404 409 415 415 419 426 431 442 450 457 462 461 463 463 463 464 466 469 469 471 468 467 445 445 465 468 470 474 478 482 486 494 555 581 569 531 520 525 517 551 673 562 475 481 862 770 834 831 929 941 964 967 965 940 859 668 686 693 672 537 550 518 508 491 475 460 443 355 287 294 280 266 258 252 245 245 259 310 560 564 557 562 567 574 574 579 596 610 617 622 626 629 634 636 636 644 648 659 669 697 741 787 885 950 1105 1192 1589 2415 3107 3780 4200 4576 4870 4844 4821 4988 5205 5182 5206 5163 5091 5071 5004 4930 4872 4940 4952 4938 4914 4919 4897 4793 4737 4667 4643 4635 4609 4623 4688 4851 5012 5030 5002 4708 4474 4203 3869 3662 3489 3322 3222 2836 3177 3341 3450 3722 3881 4047 4094 3989 3862 3448 3094 2724 2257 1864 1683 1652 1617 1582 1640 1652 1652 1649 1644 1631 1611 1586 1566 1545 1545 1580 1700 1977 2403 3071 3512 3799 4268 4868 5670 6669 7248 8128 8647 8673 8657 8579 8473 8724 9584 10214 10410 10491 10463 10387 10291 10168 10039 9725 9514 9249 8917 8735 8698 8651 8725 8798 8964 9103 9493 9898 10113 10245 10360 10408 10395 10281 10196 10117 10152 10279 10355 10359 10270 10215 10173 10131 10101 10084 9987 9870 9866 9871 9810 9691 9472 9407 9302 9291 9032 8655 8323 8104 7848 7562 7371 7271 7366 7525 7732 7478 7088 7043 6989 6866 6584 6437 6280 6052 5866 5702 5329 4980 5125 5041 4940 4713 4839 4651 4422 4042 3746 4027 4353 4496 4902 5495 5945 6277 6849 7209 7535 7986 8147 8829 9902 10005 10152 10553 10972 11298 11498 11045 10734 10663 10446 9969 9224 8531 8298 7935 7767 7710 7771 7850 7953 8131 8249 8439 8491 8700 8913 8988 9208 9474 9472 9650 9735 10031 10329 10468 10903 11277 11624 11664 11924 12019 11606 12247 12461 13161 13315 13517 14241 13850 13873 13428 12642 12308 12338 11950 11625 10981 10230 9958 9382 8861 8197 7654 7694 7626 7474 7109 6648 5455 5744 6205 7562 8671 8290 7866 8317 8625 7583 6917 6328 6723 6942 6938 6155 5506 4712 3739 3297 3658 4089 4451 5216 4107 4111 5035 5562 5594 5441 5062 4615 4229 3991 3821 3588 2884 2391 2326 2547 2742 2448 2289 2740 3085 3686 4233 4559 5172 5526 5789 5837 5676 5221 4613 4282 3978 3457 3293 2993 2733 2718 2628 2540 2426 2256 2038 2181 2291 0 0 0 0 0 0 0 0 0 0 0 0 0 0 0 0 0 0 0 0 0 0 0 0 0 0 0 0 0 0 0 0 0 0 0 0 0 0 0 0 0 0 0 0 0 0 0 0 0 0 0 0 0 0 0 0 0 0 0 0 0 0 0 0 0 0 0 0 0 0 0 0 0 0 0 0 0 0 0 0 0 0 0 0 0 0 0 0 0 0 0 0 0 0 0 0 0 0 0 0 0 0 0 0 0 0 0 0 0 0 0 0 0 0 0 0 0 0 0 0 0
0 0 0 0 0 10 20 30 30 29 32 30 22 17 13 10 0 25 27 27 26 26 27 28 31 30 28 27 27 27 27 26 36 33 33 31 31 31 31 31 31 146 220 237 259 269 287 302 310 318 311 308 297 290 270 251 216 269 281 240 375 389 386 391 396 398 408 423 488 570 626 650 675 789 823 847 861 865 869 871 865 876 927 973 984 954 910 962 987 1000 1013 1022 1021 1017 977 941 910 937 984 1024 1071 1086 1100 1111 1097 1073 1043 1016 989 950 898 788 667 596 589 585 594 602 630 656 707 749 687 630 617 585 568 562 532 422 566 559 524 431 176 351 177 167 160 158 158 156 156 164 189 294 408 491 490 470 459 460 464 466 455 440 426 415 413 413 416 412 410 416 419 423 430 435 440 447 452 460 476 484 484 474 463 463 462 459 459 459 459 445 445 445 460 462 465 467 470 472 474 482 501 508 491 483 478 411 404 509 555 632 433 832 732 795 918 896 897 937 957 956 945 916 685 674 685 674 506 426 446 469 423 414 410 390 285 281 296 269 246 246 245 245 245 251 268 451 560 566 572 574 581 583 589 600 607 615 623 627 631 637 638 642 648 653 662 672 717 768 841 979 1051 1122 1235 1593 2452 3382 3951 4405 4753 5020 5130 4982 4864 4965 5045 5078 5065 5027 4987 4983 4946 4903 4895 4917 4923 4938 4982 4975 4825 4764 4721 4685 4652 4615 4551 4600 4650 4703 4652 4522 4315 4157 3945 3682 3523 3365 3174 2860 2716 3120 3316 3387 3603 3807 3953 4008 3869 3709 3286 2885 2511 2032 1751 1619 1593 1569 1590 1630 1629 1629 1626 1624 1617 1602 1585 1569 1545 1554 1592 1763 2066 2437 3057 3488 3781 4205 4760 5558 6636 7150 7805 8814 9300 9360 9293 9019 9074 9680 10180 10366 10393 10343 10222 10111 10002 9793 9465 9170 8978 8794 8644 8542 8680 8856 9001 9134 9472 9769 10144 10321 10445 10531 10499 10406 10244 10166 10110 10235 10318 10374 10384 10353 10220 10108 10104 10118 10114 10028 9952 9896 9892 9739 9701 9332 9151 9044 8833 8641 8233 7888 7744 7592 7466 7336 7438 7601 7795 8191 8032 7814 7712 7622 7305 7217 7021 6748 6487 6263 6082 5712 5268 5322 5194 5031 4972 5205 5512 5044 4367 3988 3757 4104 4350 4674 5059 5352 5775 6164 6577 6898 7222 7676 8332 9008 9055 9304 9946 10377 10700 11152 11387 11448 11144 10763 10469 9685 9171 8867 8493 8321 8116 7933 7850 7851 7940 7995 8008 8089 8152 8288 8473 8697 8769 8759 9080 9430 9774 10093 10345 10591 10819 11044 11152 11340 11164 11152 11569 11761 12517 12598 12888 13440 14288 14639 14546 14149 13624 13025 12538 12346 11176 10934 10537 9838 9651 9093 8853 9018 8875 8047 7343 6572 6177 6846 6908 7690 8763 9738 8860 9121 8870 8289 7336 6848 7677 8108 7625 6659 5680 4978 3779 4252 4358 4829 5883 5676 4205 5009 5695 6399 6526 6290 5809 5482 4967 4504 4161 3780 2895 2517 2794 2964 3181 2834 2463 2503 2886 3538 3974 4364 5207 5847 6447 6969 6759 6150 5612 5340 4636 4193 3968 3650 3342 3281 3200 3076 2908 2735 2504 2231 2038 0 0 0 0 0 0 0 0 0 0 0 0 0 0 0 0 0 0 0 0 0 0 0 0 0 0 0 0 0 0 0 0 0 0 0 0 0 0 0 0 0 0 0 0 0 0 0 0 0 0 0 0 0 0 0 0 0 0 0 0 0 0 0 0 0 0 0 0 0 0 0 0 0 0 0 0 0 0 0 0 0 0 0 0 0 0 0 0 0 0 0 0 0 0 0 0 0 0 0 0 0 0 0 0 0 0 0 0 0 0 0 0 0 0 0 0 0 0 0 0 0
0 0 0 0 0 9 21 24 27 26 24 26 22 15 11 6 0 25 25 27 27 27 0 0 30 30 28 28 27 27 0 26 35 38 31 31 31 31 31 31 31 31 177 201 219 231 248 270 288 301 305 302 304 302 256 244 135 218 216 288 361 375 382 386 391 398 407 423 490 585 631 644 658 726 785 770 855 856 861 858 838 859 877 886 920 889 860 908 937 957 976 991 1033 1038 993 938 909 909 931 983 1041 1060 1062 1056 1059 1051 1033 1015 993 953 877 763 637 596 583 573 576 581 600 620 654 752 725 655 593 561 542 543 517 427 500 524 491 455 429 211 168 161 158 156 155 156 156 227 244 316 341 450 475 466 470 473 476 479 472 452 427 427 421 419 421 422 417 415 419 423 431 437 443 448 453 460 476 484 500 503 478 478 471 462 459 459 454 445 445 445 455 456 457 459 460 461 462 462 460 462 457 436 358 415 425 412 451 433 502 784 770 762 794 855 858 926 948 950 945 939 781 669 677 670 620 523 408 415 411 401 391 380 337 252 265 272 253 246 245 245 245 245 272 422 554 566 574 578 584 586 591 599 606 613 621 627 631 638 641 645 652 654 661 669 707 745 1010 1028 1027 1078 1197 1554 2449 3235 4047 4495 4782 5058 5146 5059 4896 4805 4906 4932 4883 4893 4955 5003 5019 5013 5004 4937 4924 4948 5039 5060 4924 4798 4708 4694 4689 4631 4483 4470 4467 4459 4382 4263 4088 3928 3769 3548 3378 3218 2936 2724 2657 2981 3153 3246 3383 3534 3639 3686 3653 3407 3042 2599 2219 1808 1676 1571 1496 1542 1603 1615 1617 1618 1612 1610 1614 1600 1585 1563 1547 1566 1608 1736 2063 2409 3078 3482 3781 4180 4728 5619 6562 7138 7823 8730 9544 9810 9727 9636 9454 10009 10141 10262 10268 10195 10074 9934 9796 9617 9313 9096 8873 8638 8547 8588 8752 8988 9115 9436 9685 9981 10308 10474 10550 10533 10443 10322 10179 10108 10107 10246 10349 10392 10377 10385 10215 10106 10119 10120 10077 10004 9953 9874 9800 9687 9455 9234 9026 8798 8598 8392 8047 7774 7622 7499 7403 7380 7525 7730 7957 8476 8631 8357 8157 8078 7971 7633 7336 7207 6725 6567 6329 5963 5568 5511 5372 5242 5114 5240 5536 5623 4741 4269 4148 3855 4104 4459 4904 5169 5506 5768 6129 6499 6801 7398 7994 8393 8466 8657 9318 9785 10047 10522 10842 11140 11336 11210 10731 10092 9625 9311 9073 8876 8652 8339 8085 7903 7887 7932 7944 7990 8011 8082 8164 8231 8446 8545 8804 9040 9631 9843 9985 10178 10313 10514 10608 10568 10527 10761 11023 11350 11956 12147 12400 13209 13813 14599 14927 14604 14165 13926 12943 12366 11583 11414 10817 10401 10116 9630 9506 9911 9165 8192 7791 7516 7090 7481 7440 7950 8545 10536 9877 9951 9423 8554 7792 7719 8446 8420 7564 6347 5716 5155 4407 4961 5017 5822 6569 5928 4869 5466 6438 6812 6998 6863 6320 5922 5586 5080 4463 3804 2815 2967 3124 3132 3387 2965 2485 2427 2756 3297 3615 4175 5144 5801 6535 7411 7587 7200 6811 5654 5199 4878 4503 4063 3923 3725 3603 3443 3330 3118 2918 2756 2545 0 0 0 0 0 0 0 0 0 0 0 0 0 0 0 0 0 0 0 0 0 0 0 0 0 0 0 0 0 0 0 0 0 0 0 0 0 0 0 0 0 0 0 0 0 0 0 0 0 0 0 0 0 0 0 0 0 0 0 0 0 0 0 0 0 0 0 0 0 0 0 0 0 0 0 0 0 0 0 0 0 0 0 0 0 0 0 0 0 0 0 0 0 0 0 0 0 0 0 0 0 0 0 0 0 0 0 0 0 0 0 0 0 0 0 0 0 0 0 0 0
0 0 0 0 0 0 21 20 26 24 16 17 20 15 11 8 0 25 25 25 25 0 0 31 30 30 29 28 28 28 27 26 34 0 31 31 31 31 31 31 31 31 31 97 189 203 221 237 253 276 287 283 305 300 242 152 184 197 296 345 370 377 380 384 385 391 402 419 469 571 635 671 668 663 681 661 758 797 861 755 703 739 647 653 734 812 831 869 883 905 925 957 1006 1043 1004 955 913 910 919 949 974 1025 1014 965 934 973 995 1001 986 959 829 672 602 586 575 565 555 563 580 592 609 709 745 677 579 558 533 515 498 374 469 474 458 444 390 309 168 160 155 153 153 175 309 308 322 334 359 437 461 469 479 484 486 506 487 461 432 429 428 427 427 426 425 420 418 424 431 436 439 444 448 457 471 479 486 541 503 483 472 464 455 453 449 448 447 445 447 448 451 449 451 451 447 439 428 426 427 381 375 470 451 415 444 486 546 732 801 797 854 859 872 918 939 943 934 943 936 678 664 660 610 578 538 408 409 400 387 373 326 246 245 250 245 246 245 247 286 245 280 522 557 568 575 582 585 588 593 599 605 611 620 626 631 638 644 649 654 656 661 666 669 909 1045 1061 1089 1154 1187 1366 2097 2774 3671 4228 4714 4994 5026 4846 4751 4755 4861 4876 4833 4919 5005 5077 5102 5106 5095 5010 4914 5012 5117 5097 4992 4881 4757 4743 4763 4699 4550 4404 4238 4167 4126 4033 3852 3738 3580 3373 3207 3011 2760 2632 2528 2777 2851 3004 3186 3254 3302 3283 3244 3200 2888 2406 2066 1705 1591 1527 1465 1578 1611 1606 1607 1607 1601 1594 1601 1592 1584 1553 1549 1576 1626 1752 2024 2366 3036 3510 3839 4256 4885 5897 6537 7113 7796 8896 9502 9876 9978 10017 10036 10048 10081 10117 10107 10033 9896 9768 9598 9459 9165 8987 8807 8571 8433 8662 8876 9132 9416 9717 9935 10203 10454 10553 10561 10476 10363 10249 10117 10124 10144 10224 10345 10391 10288 10227 10133 10095 10107 10104 10056 10022 9944 9814 9778 9647 9334 9151 8929 8595 8392 8211 7845 7670 7550 7423 7380 7416 7661 7865 8238 8832 9236 8984 8473 8366 8181 7783 7694 7415 6950 6737 6607 6219 6052 5984 5708 5540 5395 5243 5548 5655 5091 4709 4486 4169 3861 4171 4559 4866 5065 5399 5760 6048 6538 7081 7555 7816 7777 8233 8704 8908 9504 9959 10253 10606 11020 11170 11150 10636 10112 9879 9623 9401 9200 8809 8511 8329 8058 7963 7908 7923 7984 7997 8078 8202 8304 8384 8650 8900 9280 9492 9647 9741 9767 9884 9935 9941 10245 10569 10811 11184 11587 11893 12379 13076 13551 14124 14990 15063 14910 14120 13465 12701 12167 11692 11306 10816 10520 10345 10231 10382 9538 8746 8435 8222 7820 7941 7969 8581 8761 10571 11032 10844 10111 9190 9032 8773 9185 8181 7135 6275 5704 5050 5325 5607 5818 6090 6964 6297 5579 5957 6717 7225 7376 7291 6854 6471 6107 5302 4459 3711 3129 3306 3395 3488 3580 3112 2574 2427 2598 3248 3592 4115 4960 5649 6372 7346 7937 8274 7922 6304 6012 5552 4990 4680 4480 4270 4088 3772 3652 3527 3392 0 0 0 0 0 0 0 0 0 0 0 0 0 0 0 0 0 0 0 0 0 0 0 0 0 0 0 0 0 0 0 0 0 0 0 0 0 0 0 0 0 0 0 0 0 0 0 0 0 0 0 0 0 0 0 0 0 0 0 0 0 0 0 0 0 0 0 0 0 0 0 0 0 0 0 0 0 0 0 0 0 0 0 0 0 0 0 0 0 0 0 0 0 0 0 0 0 0 0 0 0 0 0 0 0 0 0 0 0 0 0 0 0 0 0 0 0 0 0 0 0 0 0
0 0 0 0 0 0 17 13 18 21 18 10 12 11 9 3 3 25 25 25 0 25 34 30 30 30 29 29 28 29 28 28 33 0 32 31 31 31 31 31 31 31 31 31 31 45 186 199 217 240 250 255 227 202 135 205 222 243 317 348 368 373 375 378 378 380 387 402 397 508 620 653 668 655 621 623 535 655 561 323 729 878 920 936 895 731 781 786 829 865 890 935 959 971 973 942 862 947 991 985 920 881 875 779 758 785 816 850 892 910 816 663 589 574 604 608 560 542 559 571 588 636 686 686 567 532 513 445 425 438 452 437 426 412 438 350 177 162 153 155 159 171 200 317 356 352 375 451 476 476 488 506 534 588 551 476 430 427 439 439 439 437 432 426 422 423 428 433 439 445 447 452 462 471 480 535 495 479 467 460 451 443 441 441 440 442 440 441 443 443 443 441 438 430 418 407 388 373 356 508 491 439 438 487 536 764 746 785 820 921 938 931 939 936 919 914 921 936 719 661 640 629 629 613 425 411 384 371 300 262 243 232 240 234 258 429 457 334 552 551 561 570 579 581 587 591 594 599 603 609 618 625 633 643 647 652 656 660 665 669 937 1041 1055 1071 1087 1127 1273 1540 2098 2265 2922 4006 4578 4758 4761 4709 4677 4682 4717 4717 4810 4943 5062 5155 5183 5181 5182 5054 4902 5053 5252 5202 5043 4910 4805 4820 4838 4835 4767 4657 4495 4286 4110 3927 3623 3368 3293 3118 2940 2741 2600 2519 2453 2399 2598 2719 2823 2877 2897 2844 2748 2775 2575 2188 1831 1569 1452 1441 1500 1581 1598 1592 1587 1590 1585 1555 1547 1537 1533 1536 1562 1578 1642 1811 2094 2452 3073 3517 3854 4502 5131 5849 6544 7120 7823 8864 9527 9933 10084 9992 9958 9907 9915 9915 9850 9775 9702 9587 9401 9197 9005 8859 8660 8491 8468 8635 8997 9390 9659 9945 10107 10278 10484 10531 10420 10288 10196 10035 10102 10098 10119 10201 10217 10223 10204 10163 10132 10079 10069 10063 10048 9984 9900 9676 9626 9512 9234 9033 8761 8475 8216 7970 7648 7541 7437 7379 7379 7496 7829 8142 8614 9302 9792 9801 9295 8879 8555 8304 7944 7766 7408 7227 6998 6543 6601 6574 6333 6114 5927 5703 5578 5610 5428 5074 4747 4420 4308 3976 4182 4387 4580 5097 5341 5490 5922 6330 6707 6943 7248 7608 7955 7955 8526 9242 9569 9920 10408 10864 11179 11495 11339 11292 10751 10263 9927 9563 9247 8950 8614 8527 8484 8258 8237 8183 8186 8103 8153 8284 8428 8628 8754 8892 9059 9155 9227 9367 9686 9931 10415 11157 11648 11888 12117 11945 12166 12950 13287 13742 14481 15190 15610 14912 14148 13203 12764 12382 11941 11578 11362 11302 11250 11698 10281 9229 8973 8638 8716 8944 8956 9510 10169 10481 11821 11517 10920 10191 9969 9906 8637 7724 6718 6003 5809 5467 5813 6179 6898 7616 7351 6828 6562 6838 7131 7733 7958 7902 7333 6987 6596 5416 4534 4110 3341 3872 3937 3983 3940 3450 2917 2557 2635 3211 3516 3982 4647 5299 6017 7130 7827 8592 9040 8405 7332 6015 5705 5446 5217 5042 4845 4500 4210 4008 0 0 0 0 0 0 0 0 0 0 0 0 0 0 0 0 0 0 0 0 0 0 0 0 0 0 0 0 0 0 0 0 0 0 0 0 0 0 0 0 0 0 0 0 0 0 0 0 0 0 0 0 0 0 0 0 0 0 0 0 0 0 0 0 0 0 0 0 0 0 0 0 0 0 0 0 0 0 0 0 0 0 0 0 0 0 0 0 0 0 0 0 0 0 0 0 0 0 0 0 0 0 0 0 0 0 0 0 0 0 0 0 0 0 0 0 0 0 0 0 0 0 0 0
0 0 0 0 0 0 13 6 13 16 16 6 6 6 5 0 3 25 25 25 25 27 30 30 30 30 30 29 29 29 29 28 33 0 33 31 31 31 31 31 31 31 31 31 31 31 31 80 199 219 225 221 175 135 189 217 233 252 298 308 346 368 369 370 371 372 375 380 372 399 555 624 628 473 327 395 342 379 258 658 881 911 918 915 917 771 756 803 867 909 903 930 924 907 907 900 838 886 920 969 881 771 749 715 708 704 716 724 791 847 788 701 668 643 722 681 579 536 545 557 568 599 635 657 570 527 511 471 359 444 428 404 365 361 400 279 170 161 154 156 160 168 190 332 380 383 439 488 487 486 488 487 533 618 592 501 497 432 447 456 447 443 438 430 426 423 426 431 436 442 444 444 449 459 470 485 485 476 461 452 445 438 434 435 436 437 436 433 434 438 439 436 433 428 417 401 382 367 355 496 501 461 438 433 501 549 656 858 861 843 938 925 927 929 912 895 900 899 824 690 652 638 632 620 590 450 385 335 289 257 240 232 232 232 232 549 567 573 551 548 554 569 576 583 593 594 596 601 604 609 619 627 634 645 651 654 659 664 669 975 1018 1051 1060 1070 1082 1108 1195 1430 2090 2958 3205 3385 4235 4385 4606 4636 4663 4673 4698 4733 4842 4976 5074 5155 5194 5157 5195 5086 4905 4983 5020 5063 5021 4873 4805 4880 4899 4918 4865 4770 4627 4410 4237 4010 3776 3594 3311 2816 2684 2555 2495 2456 2420 2317 2408 2553 2626 2669 2666 2609 2490 2472 2236 1906 1647 1449 1373 1480 1541 1562 1553 1511 1459 1492 1487 1485 1482 1479 1517 1547 1553 1592 1652 1869 2148 2573 3187 3610 3895 4588 5185 5799 6482 7019 7692 8516 9268 9897 10026 9920 9897 9819 9748 9714 9672 9632 9572 9437 9250 9112 8894 8740 8591 8383 8564 8633 8935 9197 9483 9733 9875 10212 10324 10255 10174 10092 10016 10004 10139 10146 10210 10255 10260 10249 10184 10109 10097 10041 10046 10117 10097 10003 9883 9733 9470 9359 9196 8970 8770 8386 8120 7915 7632 7521 7435 7379 7426 7575 7988 8407 8904 9641 10070 10190 9730 9516 9231 8756 8522 8297 7891 7716 7386 7069 7114 7022 6753 6674 6369 6067 5929 5630 5536 5309 4929 4728 4430 4117 4030 4073 4402 4748 4966 5057 5465 5717 6027 6171 6673 7017 7244 7519 7908 8697 9338 9815 10405 10731 10985 11337 11553 11751 11569 11113 10627 10253 9912 9479 9197 9299 9275 8946 8781 8619 8618 8427 8253 8240 8399 8470 8605 8746 8918 9159 9302 9538 9722 9971 10345 11247 11727 12091 12857 12772 12271 13223 13454 13825 14501 15397 15623 15189 14230 13815 13257 12778 12395 12190 11925 12159 12200 11643 10630 9811 9518 9514 9466 9648 9676 9491 11224 11078 12110 12035 11438 10931 10772 10554 9295 8075 7068 7125 6441 6474 7136 6619 7352 8042 7315 6943 7008 7247 7632 8167 8343 8262 7632 7205 6738 5536 4875 4365 3795 3888 4141 4243 4245 3761 3269 2916 2673 3095 3471 3909 4613 5220 5997 7031 7707 8452 8997 8527 7504 7032 6475 5852 5591 5466 5354 5088 4757 0 0 0 0 0 0 0 0 0 0 0 0 0 0 0 0 0 0 0 0 0 0 0 0 0 0 0 0 0 0 0 0 0 0 0 0 0 0 0 0 0 0 0 0 0 0 0 0 0 0 0 0 0 0 0 0 0 0 0 0 0 0 0 0 0 0 0 0 0 0 0 0 0 0 0 0 0 0 0 0 0 0 0 0 0 0 0 0 0 0 0 0 0 0 0 0 0 0 0 0 0 0 0 0 0 0 0 0 0 0 0 0 0 0 0 0 0 0 0 0 0 0 0 0 0
0 0 0 0 0 0 8 4 12 13 13 5 3 0 0 3 3 25 25 0 27 30 30 30 30 30 30 29 29 0 29 29 0 0 33 31 31 31 31 31 31 31 31 31 31 31 31 31 168 202 197 115 34 189 190 230 249 264 282 290 296 335 366 366 355 355 357 355 331 204 514 419 297 90 58 56 60 74 105 417 589 871 897 903 885 810 810 861 912 934 919 920 910 890 831 836 788 802 835 855 801 734 693 676 665 666 685 696 721 770 733 704 749 753 837 752 599 542 533 540 545 576 601 620 593 487 503 472 323 433 403 366 342 340 321 181 165 159 154 156 161 168 180 238 356 366 426 488 484 488 483 485 528 625 622 573 565 503 476 470 457 449 443 436 431 426 425 428 433 439 438 436 437 442 452 467 463 448 457 451 441 431 430 428 431 433 433 427 430 434 437 431 427 421 410 397 379 364 349 454 508 491 433 433 509 561 587 605 777 865 848 833 910 918 891 870 854 824 799 737 655 636 630 616 597 567 441 299 261 244 232 232 232 243 527 581 603 650 889 616 548 555 574 590 600 601 599 606 609 613 622 630 638 648 653 657 663 668 875 999 1028 1045 1062 1070 1078 1099 1166 1379 1941 2597 3409 4136 4390 4538 4689 4798 4850 4811 4827 4831 4856 4946 5014 5067 5100 5113 5091 5031 4912 4822 4833 4852 4980 4942 4812 4868 4953 5007 4957 4823 4669 4464 4245 3952 3740 3591 3385 3019 2728 2417 2362 2342 2347 2273 2232 2313 2409 2455 2462 2376 2251 2150 1933 1735 1596 1315 1474 1522 1538 1509 1469 1330 1422 1457 1463 1467 1473 1478 1515 1539 1564 1581 1641 1852 2126 2561 3173 3603 3883 4509 5120 5738 6357 6825 7395 8386 9098 9688 9845 9792 9786 9715 9614 9557 9500 9452 9378 9228 9124 8991 8819 8705 8550 8308 8562 8612 8806 9006 9167 9340 9694 10013 10074 9954 9964 9859 9837 10052 10169 10230 10289 10368 10356 10331 10232 10130 10018 10004 10032 10153 10130 10043 9965 9694 9418 9224 9059 8902 8714 8329 8062 7842 7603 7516 7456 7398 7508 7707 8151 8504 9086 9803 10375 10562 10356 10231 10022 9470 9208 8912 8399 7985 7635 7656 7617 7458 7170 7107 6793 6463 6257 6055 5594 5398 5064 4763 4461 4251 4204 4004 4036 4384 4536 4599 4788 5078 5355 5643 6095 6352 6583 6986 7552 8317 8879 9421 10109 10557 10830 11105 11342 11474 11792 11855 11442 11000 10576 10073 9929 9983 9992 9657 9370 9241 9103 9006 8821 8478 8415 8579 8801 8996 9253 9441 9485 9671 9898 10308 10866 10984 11608 12023 12606 13475 12924 13404 13913 14221 14501 14945 14923 14990 15027 14661 13701 14093 13513 12626 12625 12673 12978 12122 11067 10378 10103 10122 10097 10072 10241 10192 11954 11869 11816 12551 12600 11618 11430 10864 9060 8386 8437 7891 7508 7437 7745 7774 7319 8046 7359 7165 7402 7836 8170 8599 8770 8625 7999 7520 6843 5947 4973 4506 4103 3985 4437 4675 4738 4270 3547 3235 2940 2927 3382 3849 4450 5088 5720 6752 7447 8152 8929 8705 8121 7701 7041 6539 5987 5812 5707 5485 0 0 0 0 0 0 0 0 0 0 0 0 0 0 0 0 0 0 0 0 0 0 0 0 0 0 0 0 0 0 0 0 0 0 0 0 0 0 0 0 0 0 0 0 0 0 0 0 0 0 0 0 0 0 0 0 0 0 0 0 0 0 0 0 0 0 0 0 0 0 0 0 0 0 0 0 0 0 0 0 0 0 0 0 0 0 0 0 0 0 0 0 0 0 0 0 0 0 0 0 0 0 0 0 0 0 0 0 0 0 0 0 0 0 0 0 0 0 0 0 0 0 0 0 0 0
0 0 0 0 0 0 3 4 12 12 10 3 0 3 3 3 3 27 27 0 28 30 30 30 30 30 30 30 29 29 30 29 32 0 32 31 31 31 31 31 31 31 31 31 31 31 31 31 31 95 51 95 135 185 202 226 246 253 267 273 276 283 294 319 313 320 311 247 143 56 39 31 31 31 33 36 47 54 57 59 323 705 898 929 938 978 972 974 985 991 966 941 934 894 799 778 767 749 748 738 661 643 643 643 643 643 643 661 671 707 735 720 754 860 843 772 683 623 534 522 528 550 569 578 571 509 486 474 430 235 212 244 310 317 315 178 160 156 154 158 162 168 176 182 365 451 478 469 488 488 491 514 537 620 675 646 627 567 492 479 466 457 450 442 436 430 425 426 429 435 431 428 425 425 432 441 448 448 448 451 452 438 424 422 424 427 432 427 426 425 433 432 425 411 402 404 404 370 349 441 499 524 411 411 501 555 569 581 606 690 714 666 727 792 831 818 804 769 730 686 650 626 622 603 572 553 334 219 215 231 238 232 360 569 590 616 638 678 820 738 704 678 617 607 603 610 609 613 618 623 630 638 645 654 658 663 668 883 987 1007 1026 1038 1053 1063 1075 1096 1149 1285 1868 2806 3391 4301 4578 4672 4802 4895 4957 4923 4920 4920 4947 4957 4964 4986 5001 4974 4911 4871 4821 4706 4604 4630 4716 4759 4765 4758 4856 4981 5064 4850 4588 4274 3972 3696 3550 3402 3251 2923 2623 2423 2160 2101 2182 2144 2073 2143 2233 2237 2231 2166 1928 1814 1676 1569 1466 1393 1510 1512 1480 1392 1358 1478 1485 1494 1496 1505 1509 1518 1532 1547 1570 1605 1669 1947 2227 2530 3042 3576 3895 4430 5026 5664 6215 6700 7299 8139 8856 9206 9708 9684 9656 9655 9592 9512 9331 8997 8883 8933 8886 8764 8660 8567 8453 8425 8506 8530 8511 8511 8611 8942 9202 9499 9573 9533 9547 9862 10048 10161 10260 10256 10342 10457 10488 10448 10307 10170 10063 9953 9940 10029 10046 9998 9855 9465 9241 9159 8987 8886 8780 8341 8001 7786 7587 7506 7454 7492 7671 7920 8438 8966 9563 10261 10766 11004 11048 10829 10485 9751 9310 8958 8624 8449 8341 8334 8291 8035 7882 7714 7355 6844 6672 6462 6072 5613 5326 4805 4528 4379 4595 4271 4271 4010 4097 4118 4226 4583 4772 5084 5188 5574 6114 6530 6933 7472 8028 8506 9518 10003 10497 10835 11015 11095 11370 11554 11709 11816 11556 11123 11220 11155 10979 10580 10111 10047 9904 9857 9722 9215 9064 8990 9647 9903 9933 10248 10382 10450 10922 11717 11901 11453 11607 12124 12626 13390 13678 13716 14508 14854 15029 14508 14155 14161 14153 14514 14806 14445 14701 14104 14356 14726 14148 12781 12122 11095 10896 10577 10891 10987 11067 11126 12831 13643 13483 13433 13209 12158 11428 10729 9519 9559 9192 8814 8181 8556 7931 9550 8773 8203 7709 7552 7727 8257 8698 9300 9465 9275 8540 7676 7072 6035 5478 4891 4145 4784 4872 5236 5272 5112 4202 3730 3208 2830 3201 3740 4343 4850 5410 6231 6957 7792 8777 9079 9050 8344 7737 7100 6545 6176 6055 0 0 0 0 0 0 0 0 0 0 0 0 0 0 0 0 0 0 0 0 0 0 0 0 0 0 0 0 0 0 0 0 0 0 0 0 0 0 0 0 0 0 0 0 0 0 0 0 0 0 0 0 0 0 0 0 0 0 0 0 0 0 0 0 0 0 0 0 0 0 0 0 0 0 0 0 0 0 0 0 0 0 0 0 0 0 0 0 0 0 0 0 0 0 0 0 0 0 0 0 0 0 0 0 0 0 0 0 0 0 0 0 0 0 0 0 0 0 0 0 0 0 0 0 0 0 0
0 0 0 0 0 0 3 3 12 11 6 3 3 3 3 3 3 28 28 28 33 30 30 30 30 30 30 30 0 30 30 29 31 31 31 31 31 31 31 31 31 31 31 31 31 31 31 31 31 31 31 31 31 50 123 186 163 246 259 263 260 260 248 153 133 197 55 31 31 31 31 31 31 31 34 38 43 47 49 55 116 486 883 922 955 989 1015 1040 1049 1042 1013 973 955 915 865 827 792 756 726 705 675 661 643 643 643 643 643 643 643 696 736 731 730 796 805 732 701 675 547 528 520 529 542 553 550 520 429 464 451 425 345 379 181 253 214 157 157 153 154 159 165 172 180 234 404 488 489 444 467 488 502 514 512 594 687 693 651 578 512 482 469 461 454 445 438 429 424 429 427 429 426 423 423 423 426 438 461 468 472 477 469 444 427 419 418 422 428 430 425 419 429 427 420 413 410 427 431 385 348 427 489 517 411 411 433 552 559 569 591 608 659 669 706 754 778 778 767 737 706 673 638 617 612 410 350 303 217 212 289 487 477 557 579 598 612 630 654 693 842 897 819 762 759 726 625 608 607 613 620 627 636 644 649 657 662 667 845 983 989 1009 1023 1032 1047 1053 1069 1091 1130 1258 1715 2392 3297 4551 4861 4823 4861 4813 4859 4917 4985 5022 4993 4942 4904 4896 4892 4880 4762 4674 4691 4677 4598 4491 4494 4496 4509 4531 4580 4627 4595 4494 4327 3921 3678 3466 3318 3185 3096 2822 2549 2377 2172 2075 2061 2054 2034 2121 2180 2153 2136 2047 1837 1699 1503 1468 1326 1376 1474 1467 1349 1369 1489 1495 1499 1510 1512 1526 1536 1546 1554 1569 1583 1605 1708 2087 2403 2769 3325 3536 3856 4302 4732 5429 6189 6635 7031 7539 7973 8484 9672 9663 9591 9588 9557 9517 9391 9260 9057 8542 8586 8549 8509 8397 8326 8386 8431 8442 8335 8312 8426 8501 8778 9103 9168 9283 9529 9953 10151 10334 10384 10207 10229 10549 10590 10506 10316 10190 10070 9920 9747 9847 9797 9657 9504 9262 9151 9058 8896 8818 8676 8304 7966 7780 7543 7480 7480 7611 7834 8142 8750 9298 9845 10608 11077 11272 11261 10928 10416 9760 9576 9370 9116 8976 8943 8919 8791 8566 8278 8018 7773 7243 6941 6727 6193 5762 5328 4798 4503 4721 5171 4859 4673 4376 4240 4367 4170 4429 4610 4756 5107 5419 5839 6138 6504 7061 7542 8053 8796 9494 9994 10603 10734 10938 11160 11291 11409 11635 11884 12100 12325 11924 11501 11160 10840 10695 10619 10458 10253 9732 9530 9378 10140 10402 10742 11541 11520 11596 12211 13136 12792 12855 13238 13354 13566 13167 13083 13072 13753 14191 14466 14609 14057 13642 13720 14277 14909 15050 15165 15172 15002 14973 14642 14260 13285 11703 11450 11278 11535 11606 11650 11817 12346 14699 14662 14586 14352 13253 12124 10992 10463 10239 9723 9296 8935 9680 8740 10577 10305 8625 8198 7881 8028 8474 8924 9713 9935 9779 8839 8061 7128 6106 5535 5194 4614 5246 5580 5808 5798 5638 4698 4107 3504 2774 3088 3522 4318 4886 5419 6197 6929 7597 8619 9034 9355 9084 8097 7527 6966 6662 0 0 0 0 0 0 0 0 0 0 0 0 0 0 0 0 0 0 0 0 0 0 0 0 0 0 0 0 0 0 0 0 0 0 0 0 0 0 0 0 0 0 0 0 0 0 0 0 0 0 0 0 0 0 0 0 0 0 0 0 0 0 0 0 0 0 0 0 0 0 0 0 0 0 0 0 0 0 0 0 0 0 0 0 0 0 0 0 0 0 0 0 0 0 0 0 0 0 0 0 0 0 0 0 0 0 0 0 0 0 0 0 0 0 0 0 0 0 0 0 0 0 0 0 0 0 0 0
0 0 0 0 0 0 0 3 10 0 4 0 3 3 3 3 3 28 29 29 0 30 30 30 30 30 31 30 30 30 30 30 31 31 31 31 0 31 31 31 0 0 31 31 31 31 31 31 31 31 31 31 31 31 31 31 88 213 250 248 244 128 31 31 31 31 31 31 31 31 31 31 31 31 32 35 38 40 44 51 68 400 869 932 979 983 966 1038 1094 1096 1083 1051 1022 988 931 906 868 806 771 725 713 706 712 701 671 643 643 643 661 698 736 732 732 773 771 752 704 604 541 534 523 504 499 516 521 511 446 449 445 339 395 392 357 248 251 135 152 152 153 160 170 180 183 230 413 442 347 425 456 496 502 490 488 544 630 733 672 559 513 483 472 464 457 448 440 431 427 431 426 424 423 423 423 423 423 436 458 488 519 503 478 450 435 425 416 417 420 427 426 415 427 428 426 412 418 427 432 419 349 423 476 496 459 411 411 465 514 560 590 617 644 682 709 741 751 747 736 713 690 661 621 455 191 178 196 178 342 464 549 578 583 590 605 618 626 643 660 693 863 894 926 1018 1077 950 767 661 608 611 620 632 645 650 655 661 667 733 986 992 996 1010 1022 1031 1038 1045 1063 1086 1122 1213 1673 2334 3123 4105 4744 4950 4991 4921 4796 4857 4936 5090 5091 5025 4921 4823 4727 4684 4636 4590 4583 4608 4584 4490 4305 4287 4267 4264 4313 4338 4283 4181 3914 3563 3379 3210 3067 2927 2843 2633 2448 2267 2158 2111 1974 1923 1980 2076 2095 2016 1950 1870 1751 1558 1361 1315 1284 1311 1359 1327 1480 1492 1483 1478 1483 1492 1504 1538 1563 1582 1579 1591 1626 1673 1806 2215 2542 2930 3482 3624 3816 4251 4835 5636 6363 6768 7230 7959 8504 9066 9768 9652 9546 9484 9478 9437 9329 9222 9071 8829 8580 8403 8423 8285 8260 8299 8309 8237 8214 8415 8525 8781 8743 8823 9185 9490 9841 10164 10370 10422 10274 10108 10203 10573 10593 10485 10287 10179 10061 9874 9716 9668 9499 9411 9258 9147 9044 8980 8803 8715 8552 8299 7925 7672 7508 7469 7525 7721 8008 8440 9129 9625 10173 10839 11219 11373 11475 11164 10520 10235 9972 9721 9554 9509 9574 9797 9431 9063 8573 8307 7997 7480 7131 6794 6142 5480 5235 4919 4716 4596 4866 4992 5045 4684 4368 4443 4133 4293 4371 4763 4953 5137 5456 5808 6120 6606 7013 7529 8161 8851 9496 10095 10547 10800 10971 11049 11211 11437 11674 11931 12300 12380 12105 11646 11400 11362 11400 11007 10650 10057 9913 9768 9983 10547 11059 11706 12133 12337 13396 13940 14190 13954 13814 13706 13000 12590 12443 12644 13057 13445 13849 14257 14069 13231 13484 13983 14471 14461 14561 14530 14627 14704 14877 14670 13404 12164 11952 11900 12009 12200 12188 12486 12782 13315 15947 15321 14523 12934 11907 11286 10933 10655 10460 9668 10658 10795 10246 11333 10959 9679 8665 8405 8365 8831 9288 10039 10233 10004 8965 8147 7014 6332 5818 5564 5267 5613 5904 6383 6420 6095 5126 4372 3847 2935 3132 3423 4213 4757 5342 6137 6992 7566 8469 8955 9446 9399 8417 7951 7409 7000 0 0 0 0 0 0 0 0 0 0 0 0 0 0 0 0 0 0 0 0 0 0 0 0 0 0 0 0 0 0 0 0 0 0 0 0 0 0 0 0 0 0 0 0 0 0 0 0 0 0 0 0 0 0 0 0 0 0 0 0 0 0 0 0 0 0 0 0 0 0 0 0 0 0 0 0 0 0 0 0 0 0 0 0 0 0 0 0 0 0 0 0 0 0 0 0 0 0 0 0 0 0 0 0 0 0 0 0 0 0 0 0 0 0 0 0 0 0 0 0 0 0 0 0 0 0 0 0
0 0 0 0 0 0 0 0 0 0 0 0 0 3 3 3 3 27 27 33 30 0 30 30 30 30 31 31 30 30 30 30 31 31 31 31 31 31 31 31 31 31 31 0 31 31 31 31 31 31 31 31 31 31 31 31 31 31 31 31 31 31 31 31 31 31 31 31 31 31 31 31 31 31 31 34 37 33 34 43 52 69 434 568 577 547 913 1046 1095 1123 1168 1184 1175 1132 1033 997 972 952 908 870 834 839 870 857 813 761 750 711 727 719 730 732 730 736 726 735 701 610 559 540 526 506 496 496 496 496 395 426 443 356 393 398 384 347 185 128 139 143 149 158 172 184 212 229 287 500 516 520 490 489 487 494 492 553 586 617 701 638 571 486 476 470 464 454 445 439 434 423 423 423 423 426 423 424 423 428 444 466 543 544 483 461 449 438 427 417 402 408 415 408 414 419 420 412 404 416 429 431 350 412 461 486 489 433 411 411 433 560 606 608 630 664 696 727 727 719 709 689 671 623 307 178 289 626 626 621 626 627 625 614 615 615 623 632 642 655 664 694 818 865 894 976 1093 1130 1062 958 767 627 633 648 656 658 662 669 864 985 991 997 1006 1011 1019 1027 1033 1038 1055 1083 1120 1214 1559 2188 2921 3856 4327 4485 4682 4879 4913 4661 4748 4794 4825 4838 4825 4729 4735 4705 4624 4565 4461 4393 4404 4365 4227 4090 3879 3763 3784 3764 3786 3659 3549 3200 2899 2736 2657 2527 2408 2294 2180 2120 2144 2127 2082 1917 1696 1827 1848 1797 1717 1617 1522 1394 1263 1218 1212 1239 1262 1310 1362 1390 1409 1428 1445 1449 1486 1531 1583 1609 1622 1633 1670 1723 1973 2317 2509 2939 3486 3265 3753 4192 4769 5481 6197 6858 7338 8045 8686 9284 9632 9597 9570 9552 9403 9218 9117 9049 8937 8739 8599 8423 8047 8264 7963 8085 7946 8135 8463 8722 8927 8920 8969 9127 9344 9667 10007 10507 10500 10399 10173 10025 10153 10452 10578 10507 10379 10202 10052 9838 9638 9507 9358 9217 9121 8981 8895 8791 8633 8488 8314 8064 7700 7549 7450 7498 7582 7866 8208 8747 9462 9983 10422 10818 11096 11234 11491 11580 11170 10998 10755 10546 10345 10292 10293 10595 10407 9888 9031 8479 8067 7493 7101 6645 5956 6009 5988 5772 5399 5074 5023 5006 4970 4550 4467 4706 4645 4310 4241 4535 4681 5000 5338 5439 5688 6287 6641 7018 7656 8124 8748 9704 10186 10513 10682 10857 10971 11201 11410 11629 11990 12239 12590 12861 12798 12774 12200 11725 11402 10885 10744 10604 10780 10901 11151 11689 12262 12937 12910 13128 13311 13165 12885 12829 12578 11667 11539 11976 12148 12639 13015 13359 13528 13084 12946 13522 13701 13521 13598 13574 13775 13895 14515 15156 15216 12886 12693 12557 12838 13000 13034 13253 13552 14733 14809 14986 14034 12852 12350 12015 11741 11306 11061 11009 12333 12092 11088 10716 12183 11224 10614 9957 9345 9217 9740 10578 10651 10091 9235 8547 7384 6705 6312 6303 5917 5411 6387 7290 7241 6578 5702 4773 4218 3327 3200 3402 3780 4536 5157 6007 6735 7447 8274 8784 9402 9729 9162 8574 7917 0 0 0 0 0 0 0 0 0 0 0 0 0 0 0 0 0 0 0 0 0 0 0 0 0 0 0 0 0 0 0 0 0 0 0 0 0 0 0 0 0 0 0 0 0 0 0 0 0 0 0 0 0 0 0 0 0 0 0 0 0 0 0 0 0 0 0 0 0 0 0 0 0 0 0 0 0 0 0 0 0 0 0 0 0 0 0 0 0 0 0 0 0 0 0 0 0 0 0 0 0 0 0 0 0 0 0 0 0 0 0 0 0 0 0 0 0 0 0 0 0 0 0 0 0 0 0 0 0
0 0 0 0 0 0 0 0 0 0 0 0 0 0 0 3 3 27 27 30 30 30 0 30 30 30 32 0 31 31 31 30 31 31 31 31 31 31 31 31 31 31 31 31 31 31 31 31 31 31 31 31 31 31 31 31 31 31 31 31 31 31 31 31 31 31 31 31 31 31 31 31 31 31 31 31 36 31 34 40 48 55 60 81 131 366 696 915 1043 974 1077 1139 1127 1051 826 683 704 568 549 497 577 746 937 974 935 889 853 818 786 731 723 724 702 716 732 686 650 605 565 544 531 514 500 502 514 525 526 352 336 292 402 405 395 368 257 124 133 137 142 155 169 181 237 287 442 508 536 544 527 487 500 497 514 542 582 597 669 679 613 506 479 473 466 458 452 442 432 426 423 423 423 423 423 423 423 423 434 452 487 571 505 472 463 453 462 437 407 386 390 394 406 425 423 412 398 393 423 424 353 398 452 486 446 411 411 411 499 554 610 607 617 655 685 711 714 705 690 672 622 350 178 516 613 632 641 642 656 657 651 628 624 626 633 641 650 664 677 707 773 845 912 993 1103 1288 1248 1036 993 666 655 658 661 665 668 911 984 986 993 1000 1008 1010 1017 1023 1029 1034 1049 1080 1124 1210 1488 1972 2671 3459 4010 4202 4407 4537 4630 4562 4601 4664 4726 4827 4863 4921 4938 4867 4765 4620 4496 4322 4210 4173 4079 3951 3804 3508 3382 3400 3378 3365 3249 2935 2610 2352 2250 2082 2022 2037 2045 2089 2173 2165 2109 1983 1852 1508 1607 1602 1564 1380 1317 1195 1198 1252 1268 1255 1240 1276 1295 1311 1337 1373 1390 1409 1459 1493 1574 1611 1627 1654 1692 1843 2073 2346 2676 2969 3178 3287 3853 4192 4645 5288 6078 6642 7242 8038 8561 9179 9533 9503 9518 9536 9489 9385 9077 8904 8730 8539 8486 8390 8166 8045 7986 7910 7899 8245 8552 8893 9178 9388 9311 9335 9433 9610 10010 10521 10471 10356 10121 9979 9972 10279 10519 10553 10383 10213 10019 9833 9665 9278 9255 9117 8951 8875 8781 8686 8454 8243 8053 7779 7525 7435 7435 7522 7650 7926 8234 8644 9484 9937 10289 10605 10979 11167 11411 11645 11601 11393 11332 11365 11460 11199 11141 10598 10395 9755 9007 8474 7968 7299 6895 6359 6540 6563 6492 6225 5972 5641 5522 5459 5212 4591 4558 4979 5008 4779 4326 4239 4601 4830 4988 5117 5420 5918 6336 6789 7301 7780 8398 9368 9897 10152 10559 10740 10869 11055 11223 11415 11714 12002 12269 12713 13015 13234 12915 12479 12147 11724 11459 11314 11285 11403 11559 11825 12454 12400 12092 12425 12460 12639 12343 12217 11924 11347 11100 11495 11492 11824 12571 12843 12926 12761 12532 12989 13027 12923 13021 13057 13286 13491 14321 15197 15956 13652 13154 13085 13223 13402 13563 13750 13944 14925 16095 15068 14206 13447 12947 12606 12446 12340 12001 12737 13541 12822 12100 11246 12725 11933 11497 10734 10333 9982 10211 10832 10927 10342 9606 8762 7804 7052 6862 6777 6244 6346 6843 7982 7686 7048 6142 5311 4375 3540 3173 3403 3731 4481 5125 5842 6496 7182 8075 8884 9556 9985 9582 9077 0 0 0 0 0 0 0 0 0 0 0 0 0 0 0 0 0 0 0 0 0 0 0 0 0 0 0 0 0 0 0 0 0 0 0 0 0 0 0 0 0 0 0 0 0 0 0 0 0 0 0 0 0 0 0 0 0 0 0 0 0 0 0 0 0 0 0 0 0 0 0 0 0 0 0 0 0 0 0 0 0 0 0 0 0 0 0 0 0 0 0 0 0 0 0 0 0 0 0 0 0 0 0 0 0 0 0 0 0 0 0 0 0 0 0 0 0 0 0 0 0 0 0 0 0 0 0 0 0 0
0 0 0 0 0 0 0 0 0 0 0 0 0 0 0 0 3 27 31 30 30 30 30 0 0 30 0 31 31 31 31 30 32 32 31 31 31 31 31 31 31 31 31 31 31 31 0 0 31 31 31 31 31 31 31 31 31 31 31 31 31 31 31 31 31 31 31 31 31 31 31 31 31 31 31 34 35 31 34 38 44 48 51 51 54 101 252 587 919 787 902 972 955 871 656 470 218 79 77 98 184 325 533 988 1006 950 898 850 839 790 730 705 670 698 712 695 662 620 574 546 533 525 517 532 555 575 571 527 488 426 416 411 399 370 310 120 130 135 137 142 158 176 335 352 411 490 552 585 568 534 518 492 541 538 579 620 649 691 673 576 484 479 473 463 455 447 438 432 427 423 423 424 427 442 423 427 424 441 465 487 512 489 481 479 494 497 427 370 370 376 413 428 428 423 404 383 389 395 367 375 423 478 495 433 411 433 516 562 610 603 606 650 680 697 702 694 681 516 327 178 592 615 625 639 647 658 720 814 676 638 632 635 642 648 655 669 689 718 828 846 930 991 1064 1294 1406 1212 1036 797 668 669 685 781 963 984 987 990 995 1004 1008 1012 1015 1021 1026 1031 1041 1072 1115 1176 1397 1781 2474 3373 3766 3893 4182 4296 4363 4485 4533 4632 4760 4876 4994 5020 4984 4861 4722 4578 4437 4165 3960 3916 3758 3646 3629 3436 3325 3102 3058 3007 2897 2650 2319 1974 1843 1728 1672 1763 1976 2231 2245 2234 2208 2115 1987 1765 1489 1343 1419 1259 1184 1206 1308 1348 1380 1367 1335 1336 1322 1297 1312 1330 1335 1337 1399 1448 1538 1601 1625 1659 1706 1876 2070 2350 2649 2903 2756 3265 3842 4379 4598 5184 5967 6646 7205 7826 8426 9079 9369 9402 9476 9497 9475 9406 9204 9022 8822 8662 8479 8368 8191 7981 7866 7689 7948 8268 8621 9007 9382 9670 9672 9666 9844 10052 10296 10513 10403 10280 10076 9784 9707 10195 10399 10496 10392 10229 10038 9827 9590 9349 9023 9012 8728 8730 8693 8439 8178 7948 7767 7578 7433 7378 7417 7526 7709 8034 8269 8607 9286 9805 10318 10748 10959 11079 11291 11602 11776 11947 11888 12040 12123 11679 11091 10274 9842 9662 8992 8500 8211 7453 6735 6771 7096 7112 7052 6678 6418 6168 5887 5651 5184 4626 4728 5115 5219 5083 4783 4269 4373 4643 4982 5239 5415 5631 6006 6530 7082 7543 8140 8949 9471 9831 10296 10540 10740 10911 11038 11217 11473 11710 11975 12438 12662 12784 12820 12899 12884 12711 12300 12113 11947 11882 12135 12386 12432 11810 11759 11779 11726 12054 11999 11322 11405 10954 10840 11093 10800 11292 11837 12143 12228 12074 12157 12473 12323 12342 12409 13138 13638 13693 14190 14781 15309 15368 14017 13564 13694 13811 14067 14342 14411 15100 16314 15228 14875 13756 13587 13379 13074 12866 12666 13579 14043 13689 12933 12381 12947 12408 12028 12075 11599 10958 10470 11292 11247 10686 9600 8533 7680 7103 6984 6730 6841 7100 7957 8493 7916 7396 6353 5643 4651 3754 3239 3345 3622 4333 5088 5956 6509 7107 7982 8910 9597 10221 9752 9581 0 0 0 0 0 0 0 0 0 0 0 0 0 0 0 0 0 0 0 0 0 0 0 0 0 0 0 0 0 0 0 0 0 0 0 0 0 0 0 0 0 0 0 0 0 0 0 0 0 0 0 0 0 0 0 0 0 0 0 0 0 0 0 0 0 0 0 0 0 0 0 0 0 0 0 0 0 0 0 0 0 0 0 0 0 0 0 0 0 0 0 0 0 0 0 0 0 0 0 0 0 0 0 0 0 0 0 0 0 0 0 0 0 0 0 0 0 0 0 0 0 0 0 0 0 0 0 0 0 0
0 0 0 0 0 0 0 0 0 0 0 0 0 0 0 0 0 28 31 30 30 30 30 30 30 30 32 32 31 31 31 30 32 33 31 31 31 31 31 31 31 31 31 31 31 31 31 31 31 31 31 31 31 31 31 31 31 31 31 31 31 31 31 31 31 31 31 31 31 31 31 31 31 31 31 34 33 31 34 36 39 41 43 43 46 50 55 136 424 336 473 485 409 337 367 231 57 39 47 50 53 82 120 586 819 956 970 914 892 885 824 754 664 672 688 692 678 647 605 567 553 539 526 545 617 619 616 587 551 518 442 418 407 385 368 183 123 127 134 126 126 148 422 443 448 477 514 609 612 588 557 531 547 558 566 617 651 682 690 636 519 486 479 469 463 455 446 439 431 423 423 423 500 548 484 439 417 423 444 464 477 480 476 479 490 495 456 404 381 369 407 428 437 431 417 389 365 377 356 313 378 450 504 506 501 521 547 567 601 593 605 646 676 690 693 684 637 292 178 463 613 622 634 644 655 665 707 728 672 635 638 644 651 658 665 670 699 728 804 913 934 973 989 1155 1371 1344 1069 1007 996 996 1003 1007 1010 1003 994 993 1001 1005 1009 1010 1013 1018 1023 1027 1032 1053 1086 1137 1467 2039 2629 3208 3462 3708 3944 4146 4284 4363 4559 4710 4824 4916 4974 4958 4891 4764 4332 4126 4038 3735 3551 3421 3092 3037 3131 3303 3269 2977 2501 2486 2373 2163 1922 1703 1453 1421 1411 1429 1588 1892 2476 2441 2349 2252 1934 1737 1548 1307 1238 1193 1201 1321 1395 1472 1493 1489 1473 1474 1496 1521 1545 1575 1591 1604 1558 1429 1429 1594 1623 1656 1709 1858 2197 2488 2535 2576 2688 2999 3740 4485 4857 5391 6126 6691 7220 7957 8619 9130 9241 9340 9400 9379 9351 9391 9270 9062 8843 8661 8508 8405 8185 8048 7881 7670 7864 8171 8624 9026 9434 9844 10005 10086 10233 10345 10576 10516 10363 10176 9876 9539 9323 10010 10264 10387 10303 10033 9868 9777 9540 9184 8789 8623 8548 8449 8385 8201 7839 7681 7512 7419 7314 7376 7483 7586 7669 7988 8427 8938 9689 10240 10596 10874 10973 11072 11223 11483 11755 12105 12267 12382 11582 11255 10926 10519 10064 9597 9348 9030 8412 7637 7438 7506 7594 7615 7538 7181 6902 6646 6110 5623 4988 5010 5056 5313 5562 5348 5107 4702 4302 4443 4764 4926 5079 5207 5645 6076 6778 7198 7698 8275 8645 9241 9751 10138 10401 10667 10792 10933 11156 11345 11592 12019 12117 12115 12219 12440 12506 12500 12507 12501 12453 12641 12706 11952 11563 11420 11031 10789 11087 11151 11376 11208 10473 10238 10184 10247 10199 10482 10879 11147 11299 11313 11727 11795 11932 12065 12425 12954 13471 13882 14239 14792 15242 17089 16677 14858 14364 14420 14553 14815 15034 15288 16042 15898 15173 14511 14334 14011 13874 13608 14025 15213 14608 14296 13865 13586 13455 13130 13055 12861 12983 12033 11627 11602 11084 10385 8649 7895 7173 6919 6818 7078 7535 8387 8627 8896 8162 7557 6585 5819 4928 3878 3269 3442 3772 4338 4880 5792 6470 7186 8044 8835 9476 10112 10494 10540 0 0 0 0 0 0 0 0 0 0 0 0 0 0 0 0 0 0 0 0 0 0 0 0 0 0 0 0 0 0 0 0 0 0 0 0 0 0 0 0 0 0 0 0 0 0 0 0 0 0 0 0 0 0 0 0 0 0 0 0 0 0 0 0 0 0 0 0 0 0 0 0 0 0 0 0 0 0 0 0 0 0 0 0 0 0 0 0 0 0 0 0 0 0 0 0 0 0 0 0 0 0 0 0 0 0 0 0 0 0 0 0 0 0 0 0 0 0 0 0 0 0 0 0 0 0 0 0 0 0
0 0 0 0 0 0 0 0 0 0 0 0 0 0 0 0 0 0 30 30 30 30 30 30 30 30 32 32 31 31 31 30 32 34 31 31 31 31 31 31 31 31 31 31 31 31 31 31 0 31 31 31 31 31 31 31 0 31 31 31 31 31 31 31 31 31 31 31 31 31 31 31 31 31 31 31 32 31 34 36 37 37 38 39 39 40 41 46 59 60 60 60 62 63 71 54 37 38 43 46 50 56 70 108 399 545 727 845 854 900 871 812 694 663 676 690 681 659 625 600 575 546 528 565 624 613 610 602 566 547 492 425 416 390 367 219 124 122 129 122 121 237 436 455 470 487 487 564 653 644 593 544 544 587 549 606 637 667 683 683 593 524 484 474 468 461 451 443 434 425 423 424 529 580 579 463 420 417 427 444 456 467 467 473 485 491 494 434 402 358 394 416 432 436 421 391 322 362 313 349 403 458 508 521 528 543 555 570 588 595 608 647 673 686 693 602 324 178 178 593 615 626 636 648 659 670 700 697 655 635 643 646 652 661 669 692 715 851 926 913 927 953 961 1006 1224 1241 1074 1024 1009 1000 998 1003 1007 1005 1002 994 1002 1004 1008 1008 1010 1016 1021 1024 1028 1037 1067 1092 1339 1777 2208 2772 3163 3460 3726 3992 4173 4309 4509 4672 4831 4901 4918 4852 4703 4489 3922 3517 3499 3295 3111 2945 2483 2507 2605 2768 2730 2682 2341 2106 2055 1821 1676 1461 1387 1344 1359 1385 1410 1442 1651 1862 1971 1792 1620 1517 1309 1241 1184 1165 1289 1376 1434 1474 1506 1539 1548 1564 1613 1650 1693 1770 1813 1818 1781 1607 1429 1584 1617 1665 1700 1796 2141 2568 2699 2790 3052 3364 3819 4451 4928 5498 6180 6743 7231 7879 8552 9109 9191 9221 9261 9273 9290 9314 9249 9092 8853 8651 8523 8439 8320 8192 8034 7551 7802 8164 8598 8968 9393 9908 10203 10320 10541 10648 10771 10560 10344 10085 9732 9411 9083 9833 10032 10193 10145 10007 9829 9700 9450 9018 8676 8394 8335 8176 8116 7954 7730 7462 7458 7315 7188 7354 7421 7540 7675 8036 8445 9107 9822 10239 10686 10892 11011 11158 11328 11600 11773 12082 12277 12341 11680 11175 10922 10638 10368 9895 9528 9326 8760 8230 8058 7980 8102 8052 7859 7439 7342 6869 6093 5486 5359 5411 5398 5362 5717 5540 5251 5010 4703 4325 4460 4637 4765 5076 5358 5799 6465 6789 7345 7784 8199 8684 9287 9662 10035 10417 10591 10730 10900 11099 11354 11492 11533 11594 11606 11862 11880 11923 11921 11730 11857 12075 12117 11678 11073 10898 10624 10208 10359 10512 10611 10534 10032 9966 9956 9817 9936 9991 10357 10592 10628 11031 11108 11548 11962 12172 12686 12970 13419 13867 14413 14750 15138 16202 16992 16092 15191 15266 15169 15363 15608 15816 16254 17052 15484 15145 14714 14659 14399 14370 14510 15717 15135 14886 14389 14162 13999 13934 13778 13386 12896 12436 12265 10972 10353 9623 8204 7655 7103 6954 6906 7446 8244 8957 9350 9070 8260 7636 6510 5761 5029 4016 3498 3495 3938 4447 4888 5722 6365 7046 7946 8610 9199 9889 10452 10827 0 0 0 0 0 0 0 0 0 0 0 0 0 0 0 0 0 0 0 0 0 0 0 0 0 0 0 0 0 0 0 0 0 0 0 0 0 0 0 0 0 0 0 0 0 0 0 0 0 0 0 0 0 0 0 0 0 0 0 0 0 0 0 0 0 0 0 0 0 0 0 0 0 0 0 0 0 0 0 0 0 0 0 0 0 0 0 0 0 0 0 0 0 0 0 0 0 0 0 0 0 0 0 0 0 0 0 0 0 0 0 0 0 0 0 0 0 0 0 0 0 0 0 0 0 0 0 0 0 0
0 0 0 0 0 0 0 0 0 0 0 0 0 0 0 0 0 0 0 30 30 30 30 30 30 30 33 32 32 32 32 30 32 34 31 31 31 31 31 31 31 31 31 31 31 31 31 31 31 31 31 31 31 31 31 0 31 31 31 31 31 31 31 31 31 31 31 31 31 31 31 31 31 31 31 31 32 31 34 36 35 35 35 36 36 35 31 31 33 31 31 36 39 39 39 36 35 36 42 46 51 54 54 66 85 101 225 353 544 828 859 834 761 676 616 689 680 665 654 651 611 556 561 617 618 610 600 592 575 561 502 490 438 377 317 130 120 122 124 121 122 334 437 462 484 484 512 564 664 684 638 588 570 610 549 599 618 646 663 678 649 580 488 480 474 468 458 448 439 429 423 433 484 574 595 522 450 417 421 431 443 454 460 467 479 490 505 473 427 377 376 400 418 431 420 398 313 313 313 378 415 470 515 532 540 554 566 575 589 598 624 649 668 681 605 271 178 180 579 605 618 626 634 649 661 672 682 671 655 635 649 652 656 662 669 729 725 887 982 963 930 937 947 961 1011 1080 1036 1024 1015 1007 1001 1002 1002 1001 996 1000 1003 1003 1006 1002 1006 1013 1018 1021 1025 1034 1053 1081 1193 1527 1992 2524 2875 3097 3390 3602 3730 4112 4350 4562 4647 4735 4729 4542 4327 4019 3395 3132 2925 2799 2602 2395 2084 2071 2095 2108 2091 2119 2088 1830 1600 1473 1429 1380 1324 1282 1324 1344 1334 1342 1357 1401 1436 1401 1368 1361 1238 1184 1165 1220 1367 1413 1438 1444 1463 1565 1609 1673 1730 1765 1835 1996 2027 2036 2005 1753 1505 1484 1609 1673 1732 1776 2011 2558 2763 2903 3348 3674 3828 4335 4888 5533 6300 6877 7350 8141 8714 9033 9103 9107 9161 9186 9234 9252 9214 9103 8893 8676 8569 8477 8337 8201 8061 7650 7541 8033 8542 8907 9274 9900 10323 10756 10884 10884 10805 10496 10254 9987 9613 9217 8700 9469 9779 9885 9922 9872 9685 9606 9340 8917 8501 8298 8069 7997 7946 7761 7527 7315 7277 7120 7175 7294 7314 7393 7507 7819 8313 9041 9777 10288 10674 10883 11068 11242 11383 11603 11791 12030 12185 12387 11887 11485 11000 10876 10722 10414 9709 9405 9201 9042 8899 8871 8748 8514 8159 7768 7486 6972 6072 5763 5974 5890 5737 5652 5668 5549 5335 5163 5027 4647 4346 4375 4537 4717 5151 5385 6065 6456 6744 7365 7630 8168 8807 9150 9510 9901 10265 10490 10682 10819 11001 11081 11243 11267 11143 11263 11225 11448 11375 11163 11456 11699 11676 11644 11018 10366 10163 9866 9797 9854 9924 9847 9748 9776 9854 9527 9634 9672 9918 10056 10345 10594 10754 11272 11802 12368 12653 13098 13553 13796 14369 14791 15148 16094 16810 17154 17187 17898 16817 15775 15916 16221 16546 17336 15996 15641 15503 15170 15071 15785 16568 16304 15569 15371 15112 14812 14640 14396 13537 12873 12125 11518 10658 9791 9032 8322 7820 7430 7148 6997 6946 7472 8491 9163 9723 9108 8291 7520 6626 5755 5059 4130 3717 3481 3967 4471 4897 5600 6187 6800 7467 8201 8969 9766 10377 10972 0 0 0 0 0 0 0 0 0 0 0 0 0 0 0 0 0 0 0 0 0 0 0 0 0 0 0 0 0 0 0 0 0 0 0 0 0 0 0 0 0 0 0 0 0 0 0 0 0 0 0 0 0 0 0 0 0 0 0 0 0 0 0 0 0 0 0 0 0 0 0 0 0 0 0 0 0 0 0 0 0 0 0 0 0 0 0 0 0 0 0 0 0 0 0 0 0 0 0 0 0 0 0 0 0 0 0 0 0 0 0 0 0 0 0 0 0 0 0 0 0 0 0 0 0 0 0 0 0 0
0 0 0 0 0 0 0 0 0 0 0 0 0 0 0 0 0 0 0 0 30 30 30 30 30 30 33 32 32 32 32 30 33 35 31 31 31 31 31 31 31 31 31 31 31 31 31 31 31 31 31 31 31 31 31 31 31 0 31 31 31 31 31 31 31 31 31 31 31 31 31 31 31 31 31 31 32 31 33 34 35 32 33 33 33 31 31 33 34 34 34 32 31 32 33 33 34 39 41 43 46 48 51 50 52 57 68 73 87 217 377 655 785 721 641 604 650 648 651 696 696 676 618 605 612 607 600 591 584 574 556 461 482 371 202 117 124 122 124 130 121 299 492 487 482 488 485 522 628 690 683 655 628 605 625 602 609 644 693 732 700 649 565 496 484 477 467 458 448 438 432 429 460 522 588 587 532 451 417 422 431 444 450 457 472 490 462 359 236 267 309 381 383 366 360 422 313 313 313 392 425 485 530 546 552 561 569 578 590 599 612 636 658 674 281 178 334 570 597 612 619 625 631 649 661 671 665 658 644 642 651 660 660 661 665 753 723 864 904 866 889 923 940 950 969 988 1011 1010 1007 1001 1000 998 998 997 991 1000 996 1000 999 997 1002 1010 1014 1017 1024 1033 1048 1066 1097 1305 1631 2091 2317 2511 2754 2979 3301 3576 3677 3769 3935 4097 4210 3963 3639 3287 2763 2550 2392 2128 1993 1824 1720 1627 1585 1548 1561 1488 1446 1425 1401 1377 1353 1289 1212 1202 1244 1260 1260 1258 1259 1270 1280 1281 1270 1242 1179 1165 1165 1353 1432 1502 1632 1663 1588 1570 1728 1778 1832 1990 2098 2212 2256 2283 2231 1991 1647 1447 1581 1647 1707 1736 1783 2279 2688 3018 3425 3670 3921 4372 4889 5545 6311 6878 7285 8004 8475 8811 8916 8982 9022 9110 9162 9171 9145 9098 8976 8742 8616 8509 8325 8177 8021 7754 7430 7898 8441 8765 9094 9664 10205 10491 10603 10716 10654 10395 10234 9989 9564 9043 8584 8805 9244 9353 9422 9400 9307 9156 8887 8571 8180 8024 7891 7714 7666 7449 7286 7205 7015 7320 7289 7353 7358 7558 7645 7852 8160 8880 9615 10018 10454 10762 10970 11125 11357 11592 11750 11945 12140 12496 12236 11960 11704 11163 10832 10743 10148 9706 9511 9469 9469 9566 9768 9280 8672 8039 7477 7138 6628 6281 6631 6573 6219 5961 5732 5547 5347 5090 4988 4880 4677 4467 4383 4502 4767 5156 5526 5983 6253 6632 7331 7770 8267 8495 8746 9130 9504 9883 10272 10383 10472 10556 10698 10719 10378 10595 10522 10746 10714 10513 10821 10888 11412 11434 10992 10344 9635 9378 9298 9309 9093 9071 9272 9514 9351 9347 9333 9407 9704 9666 9897 10152 10654 11008 11416 11687 12169 13094 13633 13933 14440 14775 15224 15485 15916 16628 17583 18231 18667 17692 17193 16793 17130 17609 16735 16462 16444 16451 16696 17012 17787 16796 16376 15747 15544 15440 15026 14491 14320 14061 12920 12232 10806 9831 9180 8604 7610 7352 7081 7056 7086 7728 8569 9564 10184 9092 8315 7616 6671 5826 5118 4147 3770 3531 4053 4527 4928 5342 5872 6456 7222 7806 8499 9341 10166 10907 0 0 0 0 0 0 0 0 0 0 0 0 0 0 0 0 0 0 0 0 0 0 0 0 0 0 0 0 0 0 0 0 0 0 0 0 0 0 0 0 0 0 0 0 0 0 0 0 0 0 0 0 0 0 0 0 0 0 0 0 0 0 0 0 0 0 0 0 0 0 0 0 0 0 0 0 0 0 0 0 0 0 0 0 0 0 0 0 0 0 0 0 0 0 0 0 0 0 0 0 0 0 0 0 0 0 0 0 0 0 0 0 0 0 0 0 0 0 0 0 0 0 0 0 0 0 0 0 0 0
0 0 0 0 0 0 0 0 0 0 0 0 0 0 0 0 0 0 0 0 30 30 30 30 30 30 33 33 33 33 32 30 33 34 31 31 31 31 31 31 31 31 31 31 31 31 31 31 31 0 31 31 31 31 31 31 31 31 31 31 31 31 31 31 31 31 31 31 31 31 31 31 31 34 34 33 31 31 31 33 32 32 32 32 32 32 34 36 37 38 37 36 35 36 37 38 39 40 42 46 49 48 51 50 51 50 51 52 58 78 95 171 622 720 650 588 599 608 599 668 689 689 646 608 604 611 609 599 590 580 564 478 494 279 121 120 120 118 120 112 234 444 531 533 498 484 484 484 572 639 694 685 662 616 631 616 627 653 716 749 736 708 651 587 541 484 472 464 457 448 443 443 460 486 568 590 579 512 420 418 425 433 441 450 441 343 178 173 172 173 181 324 289 367 368 360 313 313 313 379 436 496 545 552 556 567 576 581 591 599 609 631 644 638 187 186 531 570 590 602 612 619 628 642 654 661 655 647 642 645 656 667 663 659 663 737 807 734 725 802 860 913 934 972 963 977 986 997 996 996 996 996 996 991 995 995 992 994 995 993 996 1005 1010 1012 1020 1029 1039 1057 1096 1189 1449 1705 1907 2059 2217 2628 2911 3138 3240 3236 3339 3485 3651 3221 2882 2540 2225 2053 1927 1737 1655 1587 1535 1503 1399 1327 1366 1363 1364 1356 1360 1343 1264 1208 1181 1180 1201 1209 1208 1206 1203 1207 1216 1237 1227 1207 1165 1165 1253 1422 1524 1659 1786 1819 1824 1552 1747 1829 2019 2158 2253 2357 2447 2524 2545 2206 1745 1460 1490 1598 1653 1686 1727 1978 2538 2962 3203 3556 3847 4496 4950 5434 6127 6682 7107 7651 8009 8280 8748 8857 8906 9044 9085 9104 9113 9088 9019 8808 8653 8534 8310 8133 7967 7728 7440 7693 8353 8659 8997 9539 9874 10177 10361 10471 10446 10302 10199 9998 9530 8966 8504 8464 8826 8944 8980 8996 8934 8733 8494 8164 7887 7740 7593 7315 7349 7276 7145 6952 7149 7356 7401 7470 7585 7668 7838 8117 8515 9097 9559 9964 10332 10575 10731 10938 11325 11572 11704 11881 12121 12495 12639 12375 12028 11614 11188 10723 10273 9985 9823 9637 9662 9890 9964 9514 8885 8278 7840 7445 6865 7089 7194 7046 6678 6296 5923 5803 5494 5240 5080 5037 4859 4637 4379 4445 4553 4888 5255 5513 5769 6357 7028 7412 7832 8083 8180 8454 8789 9249 9851 10018 10107 10137 10040 9971 9843 10022 10081 10236 10258 10116 10477 10861 11231 11216 10900 10267 9566 9071 8982 8881 8741 8882 9119 9143 9019 9034 9353 9704 9712 9513 9508 10102 10412 10620 11063 11503 11997 12764 13273 13759 14019 14180 14553 14865 15318 15795 16573 17369 17633 18414 18014 17635 17847 17790 17157 16998 17182 17614 18292 19456 18911 17728 16989 15638 14682 14056 13488 13094 12599 12242 11406 11089 10496 9610 8900 8171 7506 7284 7197 7062 7249 7775 8504 9769 10535 9146 8217 7432 6525 5768 5019 4094 3840 3625 4068 4518 4945 5387 5949 6597 7404 7891 8460 9382 10101 10784 12084 0 0 0 0 0 0 0 0 0 0 0 0 0 0 0 0 0 0 0 0 0 0 0 0 0 0 0 0 0 0 0 0 0 0 0 0 0 0 0 0 0 0 0 0 0 0 0 0 0 0 0 0 0 0 0 0 0 0 0 0 0 0 0 0 0 0 0 0 0 0 0 0 0 0 0 0 0 0 0 0 0 0 0 0 0 0 0 0 0 0 0 0 0 0 0 0 0 0 0 0 0 0 0 0 0 0 0 0 0 0 0 0 0 0 0 0 0 0 0 0 0 0 0 0 0 0 0 0 0
0 0 0 0 0 0 0 0 0 0 0 0 0 0 0 0 0 0 0 0 0 30 30 30 30 30 33 33 33 33 33 30 33 35 31 31 31 31 31 31 31 31 31 31 31 31 31 31 31 31 31 31 31 31 0 31 31 31 31 31 31 31 31 31 31 31 31 31 31 31 31 39 54 49 46 43 40 38 35 31 31 34 37 37 36 37 38 40 41 41 41 40 40 41 42 43 44 45 47 47 49 48 51 50 51 51 51 51 51 59 69 80 267 732 685 589 572 581 587 607 640 682 660 612 600 611 615 607 596 581 569 553 457 122 111 112 111 111 111 115 249 502 544 550 515 489 488 485 535 617 681 709 693 647 642 661 666 661 686 732 760 744 703 653 584 500 478 471 467 460 454 449 451 464 512 554 572 553 450 416 412 422 433 440 420 170 160 159 159 162 171 178 207 316 376 226 319 313 313 338 445 513 549 546 554 566 569 578 590 597 606 623 627 541 178 216 553 570 584 595 606 616 621 636 645 650 648 647 654 661 668 700 711 659 677 723 842 824 735 780 848 899 928 965 948 972 979 986 990 990 991 991 991 989 991 986 987 989 991 989 992 1001 1006 1004 1010 1019 1029 1045 1090 1174 1305 1550 1631 1726 1921 2155 2420 2621 2663 2717 2813 2919 3000 2480 2180 1972 1787 1703 1574 1433 1401 1391 1305 1264 1248 1218 1244 1247 1253 1258 1264 1209 1180 1152 1139 1144 1152 1164 1168 1170 1170 1171 1175 1175 1155 1156 1166 1206 1367 1522 1635 1767 1874 1913 1951 1705 1779 1951 2161 2278 2376 2572 2702 2752 2819 2616 1982 1693 1550 1532 1599 1629 1665 1747 2176 2718 3202 3298 3600 4292 4707 4976 5483 6152 6462 7006 7368 7688 8202 8316 8863 8961 8996 9009 9060 9071 9037 8901 8702 8570 8376 8205 8013 7653 7351 7668 8257 8534 8908 9366 9632 9830 9990 10052 10093 10135 10072 9856 9478 8851 8376 8046 8468 8508 8469 8425 8352 8267 8056 7871 7604 7343 7252 7021 7159 7147 7048 6995 7211 7305 7427 7534 7684 7836 7990 8532 8930 9270 9574 9756 9978 10298 10447 10614 11056 11314 11583 11868 12077 12444 12792 12922 12334 11942 11581 11151 10672 10350 10164 9832 9946 10140 9972 9565 9046 8328 7852 7530 7662 7774 7785 7529 7155 6841 6448 6105 5849 5437 5133 5177 5018 4768 4497 4442 4446 4573 4958 5189 5385 5981 6491 6745 7204 7510 7683 7867 8252 8689 9274 9620 9646 9573 9563 9533 9507 9536 9558 9819 9869 10009 10345 10641 10936 10873 10369 9771 9224 8785 8575 8500 8605 8805 8928 8934 8823 9035 9224 9179 9020 8860 9328 9539 9894 10219 10710 11173 11746 12146 12629 12914 13276 13460 13780 14285 14813 15391 15979 16578 17268 18334 18394 18279 18376 18306 17955 17820 18093 18654 19350 19227 17592 16647 15987 14796 14202 13705 13271 12743 12289 11788 11305 10914 10446 9539 8576 8049 7527 7437 7274 7192 7628 8055 8563 10342 10531 9099 8221 7357 6324 5682 4968 4223 3864 3741 4153 4553 4963 5346 5775 6337 7250 7699 8207 9175 9950 10792 11930 0 0 0 0 0 0 0 0 0 0 0 0 0 0 0 0 0 0 0 0 0 0 0 0 0 0 0 0 0 0 0 0 0 0 0 0 0 0 0 0 0 0 0 0 0 0 0 0 0 0 0 0 0 0 0 0 0 0 0 0 0 0 0 0 0 0 0 0 0 0 0 0 0 0 0 0 0 0 0 0 0 0 0 0 0 0 0 0 0 0 0 0 0 0 0 0 0 0 0 0 0 0 0 0 0 0 0 0 0 0 0 0 0 0 0 0 0 0 0 0 0 0 0 0 0 0 0 0 0
0 0 0 0 0 0 0 0 0 0 0 0 0 0 0 0 0 0 0 0 0 30 30 30 30 30 34 34 33 33 33 30 33 35 31 31 31 31 31 31 31 31 31 31 31 31 31 31 31 31 31 0 31 0 31 31 31 31 31 31 31 31 31 31 31 31 31 31 31 32 34 40 53 60 61 57 52 48 44 39 36 36 42 43 43 43 43 44 45 45 47 48 49 49 50 49 50 52 52 54 55 55 56 57 57 56 53 53 52 51 51 51 87 426 696 605 548 554 564 572 590 652 661 621 595 605 616 614 603 584 565 363 324 156 111 111 121 111 111 128 453 526 558 546 527 506 494 485 484 555 652 716 738 701 672 684 688 684 684 721 771 796 754 695 631 541 485 483 480 473 467 465 451 451 461 484 508 519 480 433 415 403 416 401 167 156 152 152 154 160 152 160 164 171 180 191 229 340 376 368 455 526 546 535 545 557 568 572 583 590 599 610 610 300 178 370 542 566 578 589 600 604 621 627 632 639 642 645 652 660 668 798 927 788 677 812 866 832 775 847 853 899 915 929 945 967 977 981 983 986 988 988 986 982 980 980 982 984 986 987 988 995 996 988 991 996 1003 1015 1053 1105 1227 1341 1403 1411 1392 1611 1852 1993 2028 1965 1923 2002 2043 1702 1617 1550 1457 1311 1200 1175 1173 1149 1114 1121 1121 1117 1139 1157 1155 1139 1140 1138 1121 1094 1100 1100 1095 1109 1116 1127 1133 1124 1101 1094 1143 1208 1217 1366 1492 1644 1738 1857 1942 1996 2017 1729 1883 2102 2278 2418 2556 2767 2870 2926 2944 2932 2575 2071 1776 1576 1550 1572 1613 1594 1740 2204 2914 3319 3448 3553 3900 4266 4774 5127 5353 5705 5974 6699 7166 7823 8426 8805 8822 8920 9021 9059 9042 8946 8762 8597 8413 8282 8092 7819 7419 7441 8178 8425 8753 9149 9395 9502 9650 9663 9673 9716 9821 9769 9393 8750 8273 7639 7946 7977 7886 7839 7721 7677 7647 7505 7253 7126 6992 6802 6955 7007 6798 6896 7127 7351 7494 7640 7953 8267 8592 9071 9379 9672 9808 9928 10163 10390 10199 10367 10802 11131 11390 11825 11973 12273 12575 12811 12749 12317 12017 11644 11108 10811 10636 10565 10494 10299 9770 9315 8882 8253 8321 8363 8511 8541 8503 8003 7733 7428 7012 6772 6350 5772 5387 5331 5113 4922 4891 4684 4613 4528 4506 4771 5059 5439 5785 6090 6515 6860 7086 7274 7609 8027 8480 8944 9074 9093 9053 8900 8904 8902 9046 9235 9644 9788 10020 10303 10562 10286 9633 9111 8628 8450 8191 8139 8345 8415 8518 8561 8406 8424 8456 8420 8416 8449 8525 9000 9394 9632 10109 10571 11059 11512 11732 11924 12350 12555 12975 13847 14438 15027 15727 16375 16912 18293 19189 18993 18817 18830 18800 18777 19152 19636 19381 17399 16577 15591 15060 14598 14032 13695 13347 12937 12550 12054 11355 10833 10403 9758 8498 7999 7658 7506 7332 7611 8021 8503 10416 11547 10887 9172 8283 7279 6137 5491 5062 4282 3831 3922 4296 4778 5139 5600 6247 6806 7607 7962 8444 9517 10360 11132 11950 0 0 0 0 0 0 0 0 0 0 0 0 0 0 0 0 0 0 0 0 0 0 0 0 0 0 0 0 0 0 0 0 0 0 0 0 0 0 0 0 0 0 0 0 0 0 0 0 0 0 0 0 0 0 0 0 0 0 0 0 0 0 0 0 0 0 0 0 0 0 0 0 0 0 0 0 0 0 0 0 0 0 0 0 0 0 0 0 0 0 0 0 0 0 0 0 0 0 0 0 0 0 0 0 0 0 0 0 0 0 0 0 0 0 0 0 0 0 0 0 0 0 0 0 0 0 0 0 0
